ply
format ascii 1.0
comment VCGLIB generated
element vertex 1654
property float x
property float y
property float z
property uchar red
property uchar green
property uchar blue
element face 0
property list uchar int vertex_indices
end_header
4.965 1.703 -2.031 95 86 77
4.965 2.231 -1.849 67 75 54
4.965 1.079 -1.67 125 123 98
4.965 0.551 -1.364 91 91 79
4.965 1.511 -2.018 38 23 18
4.965 0.166 -0.912 60 54 38
4.965 0.935 -1.755 2 4 0
4.965 1.247 -1.829 2 2 0
4.965 2.375 -0.864 223 221 209
4.965 1.751 -1.951 46 42 30
4.965 1.031 -1.751 3 1 0
4.965 0.286 -1.066 37 28 21
4.965 0.334 -1.103 68 59 50
4.965 0.743 -1.583 42 42 32
4.965 0.503 -1.326 55 55 47
4.965 1.343 -1.992 45 31 30
4.965 1.583 -2.038 179 159 152
4.965 1.919 -0.416 237 222 203
4.965 1.391 -2.002 47 28 30
4.965 1.487 -2.011 35 21 18
4.965 1.967 -0.395 244 225 208
4.965 1.775 -1.893 43 40 25
4.965 1.559 -2.035 95 76 69
4.965 1.007 -1.771 9 7 0
4.965 2.159 -1.649 0 3 0
4.965 1.415 -1.999 61 45 45
4.965 2.327 -1.422 172 174 160
4.965 1.727 -1.997 82 76 64
4.965 0.431 -1.22 70 67 52
4.965 0.142 -0.828 142 139 120
4.965 0.407 -1.08 59 56 41
4.965 2.111 -0.592 207 205 182
4.965 1.319 -1.964 34 24 22
4.965 1.127 -1.627 214 213 183
4.965 0.863 -1.673 11 14 0
4.965 0.623 -1.343 71 72 54
4.965 2.303 -1.648 27 29 15
4.965 0.695 -1.454 147 150 119
4.965 1.991 -0.388 242 223 206
4.965 1.151 -1.634 208 207 176
4.965 0.383 -1.026 92 86 74
4.965 1.055 -1.704 66 65 44
4.965 1.655 -2.031 59 46 40
4.965 0.671 -1.404 113 117 84
4.965 0.647 -1.372 89 91 67
4.965 0.19 -0.954 87 81 69
4.965 0.118 -0.71 211 209 186
4.965 0.238 -1.001 37 28 23
4.965 0.599 -1.348 58 58 46
4.965 1.223 -1.712 99 99 75
4.965 1.943 -0.429 239 222 204
4.965 1.631 -2.024 47 30 23
4.965 0.815 -1.691 9 9 1
4.965 1.823 -1.633 40 37 20
4.965 0.911 -1.722 118 120 106
4.965 2.351 -1.012 223 223 211
4.965 1.439 -1.989 32 18 17
4.965 1.799 -1.788 47 44 29
4.965 1.367 -2.002 38 22 22
4.965 2.207 -1.842 53 58 38
4.965 0.455 -1.254 78 76 63
4.965 2.135 -1.117 92 91 70
4.965 0.31 -1.085 74 65 58
4.965 0.575 -1.362 72 72 62
4.965 1.535 -2.024 64 47 40
4.965 1.847 -1.416 73 68 49
-3.04 0.777 0.261 64 71 19
-3.04 1.376 0.261 133 141 81
-3.04 1.33 0.518 113 124 58
-3.04 0.501 0.391 64 68 35
-3.04 1.537 -0.632 53 59 21
-2.977 1.261 -0.801 5 6 0
-2.977 1.514 -0.927 11 14 0
-2.977 1.883 -0.8 120 126 88
-2.977 0.432 0.351 123 132 65
-2.97 1.652 -0.89 29 32 15
-2.97 1.698 -0.889 94 96 83
-2.97 0.34 0.391 82 88 42
-2.97 1.975 -0.762 72 78 42
-2.97 2.021 -0.631 129 134 76
-0.389 0.386 -3.031 123 108 67
-0.389 0.685 -3.54 125 119 67
-0.389 1.537 -3.031 67 72 40
-0.389 1.33 -3.031 76 82 46
-0.389 1.491 -3.031 61 65 38
-0.389 1.514 -3.031 73 78 46
-0.389 1.675 -2.903 58 62 35
-0.389 2.297 -1.88 158 169 197
-0.808 0.593 -3.018 88 73 42
-0.808 1.721 -1.992 37 41 18
-0.808 1.238 -2.889 88 91 60
-0.808 1.261 -2.889 95 98 67
-0.808 0.869 -3.018 87 78 39
-0.808 1.744 -1.993 55 59 34
-3.668 1.053 0.67 90 99 36
-3.668 0.869 1.051 60 69 16
-3.668 0.685 0.924 135 145 84
-3.668 0.892 1.051 81 89 32
-3.668 2.228 -1.12 73 76 45
-3.668 0.524 0.797 104 109 43
-1.149 0.363 -2.708 93 86 58
-1.149 1.053 -2.707 124 123 95
-1.149 1.1 -2.575 123 124 92
-1.149 0.8 -2.706 119 112 86
-1.149 1.238 -2.192 69 69 57
-2.882 1.975 -0.79 79 86 42
-2.882 1.698 -0.917 110 112 72
-2.882 1.86 -0.792 125 136 68
-2.882 1.837 -0.792 105 117 45
-2.882 2.021 -0.661 97 105 45
-2.882 1.952 -0.792 75 82 38
5.133 1.511 -2.062 124 103 86
5.133 1.199 -2.056 19 15 16
5.133 2.183 -0.617 186 181 162
5.133 2.351 -0.649 229 231 218
5.133 0.767 -1.732 17 16 11
5.133 0.383 -1.201 82 81 63
5.133 0.286 -1.001 171 165 149
5.133 1.655 -1.854 95 99 82
5.133 1.007 -1.898 10 0 0
5.133 0.695 -1.636 164 167 138
5.133 0.334 -1.14 117 114 99
5.133 0.839 -1.795 30 32 21
5.133 2.135 -0.314 203 195 174
5.133 1.271 -2.045 111 111 101
5.133 0.623 -1.617 51 50 45
5.133 1.943 -0.347 224 217 191
5.133 1.055 -1.881 68 54 45
5.133 2.303 -0.907 184 185 171
5.133 1.295 -2.059 164 155 146
5.133 0.455 -1.274 108 110 86
5.133 1.919 -0.357 239 232 206
5.133 1.391 -2.056 57 17 9
5.133 1.559 -1.993 73 62 42
5.133 0.142 -0.795 88 89 71
5.133 2.015 -0.282 226 215 193
5.133 1.079 -1.881 61 47 38
5.133 1.703 -1.854 76 79 62
5.133 0.527 -1.423 125 126 112
5.133 1.991 -0.285 222 215 189
5.133 0.887 -1.814 0 3 0
5.133 1.127 -1.919 21 10 4
5.133 0.575 -1.562 7 5 6
5.133 0.503 -1.355 97 98 82
5.133 1.847 -0.308 238 232 210
5.133 2.063 -0.312 235 224 202
5.133 1.487 -2.079 142 115 98
5.133 1.727 -1.838 113 114 96
5.133 0.358 -1.183 98 95 80
5.133 1.223 -2.069 37 35 36
5.133 2.279 -1.313 92 90 75
5.133 0.479 -1.305 87 89 68
5.133 1.631 -1.87 101 102 84
5.133 1.415 -2.056 63 23 13
5.133 1.535 -2.031 25 10 0
5.133 0.407 -1.231 107 109 88
5.133 0.863 -1.792 26 29 18
5.133 0.19 -0.802 93 91 70
5.133 2.255 -1.461 39 37 22
5.133 2.159 -0.418 192 185 166
5.133 0.166 -0.795 88 87 67
5.133 1.031 -1.891 57 42 35
5.133 0.671 -1.627 20 23 0
5.133 0.647 -1.627 3 4 0
5.133 0.551 -1.495 94 94 86
5.133 0.911 -1.837 38 39 31
5.133 0.815 -1.784 25 25 17
5.133 1.799 -0.664 228 225 206
5.133 2.111 -0.256 220 212 191
5.133 1.751 -1.687 75 74 56
5.133 2.327 -0.67 218 219 205
5.133 2.207 -1.189 119 113 97
5.133 0.719 -1.67 126 128 106
5.133 0.118 -0.789 93 94 80
5.133 2.039 -0.278 232 221 199
5.133 2.231 -1.434 69 66 49
5.133 1.895 -0.321 239 231 208
5.133 1.823 -0.452 240 235 215
5.133 1.439 -2.069 107 69 58
5.133 1.103 -1.889 36 23 14
5.133 1.463 -2.073 105 72 57
5.133 1.607 -1.915 74 69 50
5.133 0.959 -1.893 57 50 44
5.133 0.31 -1.061 149 143 127
5.133 2.087 -0.296 234 223 201
5.133 1.343 -2.066 127 98 92
5.133 0.935 -1.865 23 20 13
5.133 0.238 -0.871 134 129 107
5.133 1.775 -1.247 153 150 131
5.133 1.583 -1.954 89 81 62
5.133 1.175 -2.009 67 61 61
5.133 1.367 -2.063 86 49 41
5.133 0.431 -1.249 114 116 92
5.133 0.599 -1.6 29 27 28
5.133 0.743 -1.7 18 19 5
5.133 0.262 -0.932 149 144 124
5.133 0.214 -0.834 114 112 89
5.133 0.791 -1.762 21 20 16
5.133 1.967 -0.305 215 208 180
5.133 1.247 -2.052 1 2 0
5.133 1.319 -2.062 121 102 95
5.133 1.679 -1.872 92 95 78
5.133 2.375 -0.615 226 228 215
5.133 1.871 -0.3 234 228 204
5.133 0.983 -1.9 74 65 60
5.133 1.151 -1.967 99 89 87
-4.133 1.376 -0.077 74 65 24
-4.133 1.353 -0.079 74 67 21
-4.133 2.09 -0.593 100 121 124
-4.133 0.961 0.686 97 100 55
-4.133 0.731 0.812 41 42 8
-4.133 0.27 1.197 54 56 34
-4.133 1.767 -0.719 48 63 42
-4.366 2.09 0.182 0 1 4
-4.366 2.044 0.564 23 26 9
-4.366 0.8 1.332 87 91 56
-4.366 0.662 1.586 75 78 47
-4.366 0.293 1.202 113 109 80
-4.366 1.146 0.437 139 133 47
-4.366 0.639 1.586 68 71 42
-4.366 2.182 0.055 105 114 111
-4.366 2.067 0.31 131 135 138
-2.979 0.869 0.213 128 137 72
-2.979 1.86 -0.812 93 100 58
-2.979 0.616 0.213 42 43 27
-2.979 0.662 0.213 84 88 55
-2.979 1.215 0.213 124 133 70
-2.979 0.57 0.213 51 54 27
-2.979 0.593 0.213 18 19 3
-2.979 0.777 0.213 1 3 0
-2.979 0.708 0.213 71 77 33
-2.979 0.8 0.213 54 57 30
-2.979 0.754 0.213 58 61 32
-2.979 0.639 0.213 74 76 54
-2.979 0.501 0.339 128 135 83
-2.979 1.33 -0.812 114 115 73
-2.979 0.938 -0.045 33 37 0
-2.979 0.685 0.213 56 62 18
-2.979 0.731 0.213 98 102 67
-2.979 1.376 -0.807 55 56 25
-2.979 0.846 0.213 99 106 54
-2.979 0.823 0.213 109 114 74
-1.493 0.317 -1.902 54 53 23
-1.493 1.79 -2.282 65 71 33
-1.493 1.675 -2.155 67 73 37
-1.493 1.929 -2.408 69 76 34
-3.251 1.698 0.135 39 45 7
-3.251 0.409 0.642 80 87 36
-3.251 0.432 0.642 79 86 35
-3.251 1.238 0.898 108 115 61
-2.02 1.629 -2.476 98 103 63
-2.02 0.224 -1.199 66 62 37
-2.02 1.744 -2.604 83 91 44
-2.02 1.146 -1.965 94 102 53
-2.02 1.491 -2.223 90 94 59
-2.02 0.685 -1.58 76 76 42
1.46 0.911 -0.915 55 55 31
1.46 0.839 -1.006 69 72 51
1.46 0.503 -0.785 69 80 40
1.46 1.847 -0.945 145 160 129
1.46 1.943 -1.312 124 124 100
1.46 1.991 -1.404 121 125 100
1.46 0.791 -0.986 85 90 68
1.46 0.262 -0.545 100 107 73
1.46 1.727 -1.022 99 103 76
1.46 0.214 -0.506 106 112 84
1.46 1.079 -0.858 77 79 42
1.46 0.599 -0.802 88 98 61
1.46 1.775 -0.917 101 115 89
1.46 0.743 -0.929 65 70 47
1.46 0.31 -0.607 124 133 102
1.46 1.463 -1.07 108 112 75
1.46 0.334 -0.64 110 118 94
1.46 1.319 -0.821 50 50 24
1.46 0.695 -0.885 70 76 48
1.46 1.175 -0.87 71 73 33
1.46 2.135 -1.495 149 143 107
1.46 0.166 -0.474 39 44 21
1.46 0.358 -0.665 81 86 66
1.46 0.767 -0.964 61 66 44
1.46 2.375 -1.618 158 165 124
1.46 0.142 -0.464 52 58 32
1.46 1.655 -1.203 127 134 93
1.46 1.535 -1.227 79 83 50
1.46 0.551 -0.785 107 115 76
1.46 2.015 -1.433 135 140 110
1.46 0.719 -0.906 61 67 41
1.46 2.159 -1.512 141 128 93
1.46 1.703 -1.084 139 142 111
1.46 2.279 -1.553 139 125 88
1.46 1.343 -0.807 62 62 36
1.46 1.751 -0.968 110 119 92
1.46 0.527 -0.785 72 83 43
1.46 2.207 -1.515 141 121 86
1.46 1.367 -0.83 131 131 103
1.46 1.007 -0.788 141 142 111
1.46 1.871 -1.028 161 170 141
1.46 1.823 -0.903 78 97 67
1.46 1.031 -0.827 56 57 25
1.46 1.223 -0.877 83 85 45
1.46 2.039 -1.447 153 158 126
1.46 0.959 -0.795 68 68 42
1.46 2.255 -1.54 137 117 80
1.46 2.111 -1.486 170 167 132
1.46 2.087 -1.475 189 190 156
1.46 1.127 -0.856 162 164 125
1.46 1.559 -1.238 45 49 12
1.46 1.583 -1.234 77 82 41
1.46 0.623 -0.82 69 79 44
1.46 1.895 -1.134 168 172 145
1.46 1.631 -1.22 103 110 68
1.46 0.118 -0.463 65 72 41
1.46 1.679 -1.137 112 116 81
1.46 0.575 -0.793 129 137 100
1.46 0.671 -0.855 73 80 49
1.46 0.19 -0.488 66 71 48
1.46 0.935 -0.85 65 65 39
1.46 1.055 -0.854 68 69 35
1.46 1.439 -1 115 119 82
1.46 1.919 -1.228 161 161 135
1.46 2.183 -1.515 132 116 80
1.46 1.607 -1.234 91 98 56
1.46 1.511 -1.191 123 127 94
1.46 1.271 -0.859 86 87 56
1.46 0.238 -0.527 96 103 70
1.46 0.407 -0.721 86 94 73
1.46 2.327 -1.596 107 105 66
1.46 1.487 -1.137 117 121 88
1.46 1.799 -0.897 58 77 49
1.46 0.887 -0.966 72 71 50
1.46 0.647 -0.834 122 132 98
1.46 1.391 -0.866 137 138 104
1.46 0.383 -0.7 65 70 50
1.46 1.103 -0.856 94 96 59
1.46 0.431 -0.738 125 133 110
1.46 2.351 -1.611 100 105 64
1.46 1.151 -0.86 101 103 63
1.46 1.967 -1.359 116 118 96
1.46 0.286 -0.577 114 124 89
1.46 0.815 -1.001 98 103 83
1.46 1.247 -0.875 108 109 75
1.46 1.199 -0.877 67 70 27
1.46 0.479 -0.773 75 85 48
1.46 1.295 -0.831 53 53 25
1.46 0.455 -0.756 71 80 51
1.46 0.983 -0.776 169 169 141
1.46 2.231 -1.525 137 115 78
1.46 2.303 -1.573 122 114 75
1.46 1.415 -0.922 129 131 94
1.46 0.863 -1.009 109 111 89
1.46 2.063 -1.458 181 185 152
-0.159 0.593 -3.437 137 124 89
-0.159 0.317 -3.051 187 177 142
-0.159 0.662 -3.564 93 86 40
-0.849 1.192 -2.86 87 90 59
-0.849 1.675 -1.965 40 41 33
-0.849 1.698 -1.965 30 33 14
-0.849 0.846 -2.987 145 136 107
-0.849 1.307 -2.729 100 106 68
-0.849 0.639 -2.987 50 46 17
-0.849 0.616 -2.987 68 57 29
-0.849 1.422 -2.219 40 42 28
-0.849 1.652 -1.965 44 45 37
-0.849 0.869 -2.987 79 75 48
-0.849 0.247 -2.728 67 67 41
-0.849 1.629 -1.965 26 27 11
5.061 2.159 -1.15 116 111 92
5.061 0.551 -1.528 32 31 26
5.061 1.751 -1.949 42 46 29
5.061 0.887 -1.799 109 113 90
5.061 2.231 -1.705 80 81 63
5.061 0.166 -0.809 125 120 100
5.061 1.199 -1.858 34 28 28
5.061 1.559 -2.024 48 32 17
5.061 2.207 -1.649 94 93 75
5.061 1.295 -1.951 76 72 71
5.061 1.727 -1.996 43 47 30
5.061 1.439 -2.038 47 33 24
5.061 2.255 -1.69 108 109 93
5.061 1.487 -2.038 91 79 65
5.061 0.19 -0.856 116 109 90
5.061 1.415 -2.035 69 54 47
5.061 0.695 -1.608 148 151 124
5.061 0.959 -1.82 140 136 124
5.061 2.183 -1.498 81 78 59
5.061 0.599 -1.576 22 21 19
5.061 1.007 -1.771 7 0 0
5.061 1.823 -0.824 208 207 186
5.061 0.286 -1.116 132 122 112
5.061 0.719 -1.647 100 102 81
5.061 0.431 -1.315 63 60 45
5.061 1.079 -1.7 95 85 75
5.061 0.214 -0.916 118 111 93
5.061 0.623 -1.572 11 10 5
5.061 1.895 -0.32 234 228 206
5.061 1.871 -0.362 241 236 214
5.061 1.703 -2.007 94 98 83
5.061 0.983 -1.8 65 58 48
5.061 1.583 -2.013 55 36 22
5.061 0.503 -1.447 33 33 23
5.061 0.262 -1.075 99 89 77
5.061 0.575 -1.563 35 34 32
5.061 1.943 -0.339 250 238 216
5.061 0.407 -1.285 72 66 52
5.061 1.271 -1.915 23 23 21
5.061 1.679 -2.02 51 55 40
5.061 1.607 -2.014 58 44 31
5.061 1.511 -2.038 96 84 68
5.061 2.015 -0.333 226 214 192
5.061 2.039 -0.361 210 198 176
5.061 0.743 -1.689 5 5 0
5.061 1.367 -2.035 62 48 45
5.061 1.127 -1.729 61 52 43
5.061 0.863 -1.792 103 106 87
5.061 0.238 -1.014 101 92 77
5.061 1.775 -1.843 27 30 11
5.061 0.479 -1.403 14 14 2
5.061 2.279 -1.531 92 93 77
5.061 0.142 -0.752 134 129 107
5.061 2.087 -0.41 186 175 153
5.061 1.031 -1.743 47 37 27
5.061 1.223 -1.886 33 31 32
5.061 0.671 -1.583 127 129 105
5.061 0.358 -1.245 110 101 92
5.061 1.343 -2.021 82 71 69
5.061 2.303 -1.148 171 172 158
5.061 1.967 -0.32 239 227 205
5.061 1.055 -1.713 73 63 53
5.061 1.175 -1.818 7 0 0
5.061 1.319 -1.989 127 119 117
5.061 0.334 -1.216 133 124 115
5.061 1.391 -2.038 77 62 57
5.061 0.527 -1.49 25 25 15
5.061 0.911 -1.813 90 91 73
5.061 1.463 -2.031 47 35 23
5.061 0.31 -1.174 157 147 138
5.061 1.247 -1.886 21 21 21
5.061 2.327 -0.884 238 239 225
5.061 1.535 -2.034 56 43 27
5.061 1.655 -2.035 56 60 45
5.061 0.839 -1.797 61 61 51
5.061 2.135 -0.755 158 151 132
5.061 1.991 -0.319 239 227 205
5.061 0.767 -1.73 20 19 17
5.061 1.631 -2.035 52 50 35
5.061 1.847 -0.542 237 235 214
5.061 1.799 -1.547 142 144 123
5.061 1.151 -1.771 6 0 0
5.061 0.647 -1.576 49 50 36
5.061 0.455 -1.37 62 60 45
5.061 1.103 -1.704 123 113 103
5.061 2.063 -0.385 201 190 168
5.061 0.935 -1.823 124 122 107
5.061 0.383 -1.263 82 76 64
5.061 2.111 -0.52 173 165 144
5.061 0.815 -1.79 53 52 48
5.061 1.919 -0.336 247 236 214
5.061 2.351 -0.8 235 235 223
5.061 2.375 -0.757 220 220 208
5.061 0.791 -1.766 14 12 15
5.061 0.118 -0.683 129 127 106
-2.38 0.823 -0.99 68 57 37
-2.38 1.053 0.03 112 120 71
-2.38 0.892 0.03 86 91 50
-3.009 0.27 0.431 63 67 30
-3.009 1.238 -0.463 13 17 0
-3.009 1.998 -0.718 98 100 61
-3.009 0.293 0.431 115 120 80
-0.164 1.837 -2.569 54 58 31
-0.164 1.721 -2.951 63 66 47
-0.164 0.363 -3.078 134 122 80
4.389 0.671 -0.818 52 49 32
4.389 0.238 -0.53 169 173 146
4.389 1.031 -0.974 156 155 125
4.389 1.223 -1.213 143 124 118
4.389 0.695 -0.847 32 29 12
4.389 1.103 -1.123 77 69 46
4.389 0.551 -0.535 175 173 148
4.389 0.767 -0.887 64 61 44
4.389 2.375 -1.796 168 168 166
4.389 0.623 -0.715 170 167 148
4.389 2.039 -1.396 120 129 98
4.389 2.087 -1.494 87 92 70
4.389 2.279 -1.784 116 122 96
4.389 2.183 -1.696 52 58 32
4.389 1.559 -1.45 173 153 129
4.389 0.887 -0.92 77 71 55
4.389 0.214 -0.523 173 178 148
4.389 1.727 -1.724 52 60 36
4.389 0.358 -0.516 65 68 49
4.389 1.751 -1.73 36 46 22
4.389 1.991 -1.389 102 115 85
4.389 0.815 -0.932 70 67 48
4.389 0.142 -0.493 160 166 130
4.389 2.159 -1.654 63 68 46
4.389 1.391 -1.266 118 122 97
4.389 1.607 -1.555 162 129 112
4.389 1.079 -1.061 137 131 105
4.389 0.166 -0.504 191 197 163
4.389 0.31 -0.535 62 65 44
4.389 0.791 -0.905 52 49 30
4.389 0.863 -0.924 41 35 19
4.389 2.207 -1.73 38 45 14
4.389 1.343 -1.224 105 99 83
4.389 1.655 -1.647 82 67 44
4.389 0.719 -0.86 76 73 56
4.389 1.847 -1.771 92 91 73
4.389 1.631 -1.611 98 76 55
4.389 0.19 -0.515 188 193 161
4.389 2.015 -1.378 122 133 99
4.389 1.943 -1.592 87 92 69
4.389 0.503 -0.462 131 130 102
4.389 2.303 -1.793 158 161 142
4.389 1.583 -1.507 186 153 136
4.389 1.007 -0.948 172 173 142
4.389 0.911 -0.924 117 114 95
4.389 1.919 -1.697 58 60 38
4.389 1.463 -1.291 164 160 133
4.389 0.839 -0.937 80 77 58
4.389 1.967 -1.461 87 100 72
4.389 0.743 -0.876 89 86 69
4.389 1.295 -1.209 80 78 66
4.389 1.367 -1.238 116 113 94
4.389 0.575 -0.59 96 94 71
4.389 1.895 -1.771 66 63 44
4.389 0.262 -0.535 183 187 162
4.389 0.959 -0.933 118 118 92
4.389 0.383 -0.499 77 80 63
4.389 1.127 -1.167 66 53 36
4.389 1.271 -1.206 134 127 117
4.389 1.535 -1.398 167 153 127
4.389 1.703 -1.701 89 89 65
4.389 1.511 -1.341 126 110 85
4.389 1.151 -1.205 87 71 58
4.389 1.871 -1.796 40 37 18
4.389 1.055 -1.009 133 129 100
4.389 1.199 -1.213 66 42 38
4.389 2.327 -1.793 196 198 185
4.389 0.431 -0.464 42 44 31
4.389 1.319 -1.209 117 115 102
4.389 0.407 -0.485 63 65 51
4.389 0.479 -0.444 97 97 73
4.389 2.231 -1.762 80 87 54
4.389 1.439 -1.277 143 146 117
4.389 2.255 -1.777 120 127 96
4.389 1.823 -1.752 112 115 96
4.389 1.679 -1.673 81 75 51
4.389 1.175 -1.213 52 32 25
4.389 0.647 -0.771 59 56 39
4.389 2.135 -1.605 104 109 89
4.389 1.487 -1.303 117 103 77
4.389 1.247 -1.213 150 140 131
4.389 1.415 -1.277 129 135 107
4.389 0.118 -0.483 142 148 110
4.389 2.063 -1.446 76 85 58
4.389 0.599 -0.643 115 113 92
4.389 1.775 -1.727 76 85 64
4.389 0.935 -0.932 92 90 69
4.389 2.111 -1.551 142 147 127
4.389 1.799 -1.735 99 107 86
4.389 0.527 -0.494 189 188 160
4.389 0.286 -0.535 150 154 131
4.389 0.983 -0.942 165 165 137
4.389 0.334 -0.527 41 44 23
4.389 2.351 -1.796 190 191 185
4.389 0.455 -0.451 55 56 40
-3.164 0.293 0.605 23 26 0
-3.164 1.675 0.228 163 173 110
-3.164 1.906 -0.413 70 75 35
-3.164 1.007 0.61 71 75 40
-3.164 0.57 0.483 28 32 0
-3.164 1.56 0.483 77 85 36
-3.164 0.593 0.481 48 54 6
-2.77 2.228 -2.353 81 83 34
-2.77 1.698 -1.074 96 99 52
-2.77 1.468 -1.076 89 90 56
-2.77 2.113 -0.818 66 75 22
-2.77 2.09 -0.818 91 100 45
-2.77 1.629 -1.076 88 97 52
-2.77 0.915 0.076 71 74 45
-3.18 1.468 0.648 85 94 39
-3.18 0.247 0.646 30 32 8
-3.18 1.03 0.646 67 71 34
-3.18 2.136 -0.63 91 95 72
-3.18 1.86 -0.756 62 60 39
-3.18 2.113 -0.63 96 99 80
-3.18 1.284 0.776 91 101 38
-3.18 0.224 0.646 51 53 29
-3.18 0.201 0.646 94 96 74
-0.994 0.247 -2.626 39 37 12
-4.118 2.182 -0.511 131 167 193
-4.118 1.445 -0.127 110 100 64
-4.118 0.57 0.898 38 30 7
-4.118 0.57 0.767 52 41 21
-4.118 1.837 -0.895 71 85 60
-4.118 1.56 -0.379 36 35 17
-4.118 0.478 1.024 56 55 35
-4.118 1.883 -1.914 180 180 154
-4.118 2.067 -0.639 67 87 76
-4.118 0.363 1.151 44 43 23
-2.528 0.455 -0.519 107 105 67
-2.528 0.915 0.118 46 53 11
-2.528 0.34 -0.264 69 71 22
-2.528 0.547 0.118 39 44 3
-2.528 0.616 0.118 59 64 24
-2.528 0.685 0.118 89 93 58
-2.528 1.399 -1.031 115 106 63
-2.528 0.823 0.118 48 49 31
-2.5 1.837 -1.516 59 48 30
-2.5 1.445 -1.262 139 125 80
-2.5 1.053 0.013 54 60 24
-2.5 2.067 -2.542 107 110 57
-2.5 2.044 -2.542 94 97 44
-2.5 0.363 -0.369 106 106 56
-4.471 1.767 0.248 203 206 211
-4.471 1.238 0.504 107 112 46
-4.471 0.8 1.526 89 91 70
-4.471 0.938 1.268 80 85 44
-4.471 1.376 0.118 115 121 93
-4.471 1.399 -0.011 223 227 213
-4.471 0.201 1.78 37 38 4
-2.498 0.547 -0.101 124 127 84
-1.284 1.445 -2.039 81 83 61
-1.284 0.432 -2.422 70 65 36
-1.284 0.639 -2.292 44 40 13
-1.284 0.915 -2.162 39 36 21
-1.284 2.228 -2.674 128 140 94
-2.667 2.343 -2.426 101 104 51
-2.667 0.455 0.125 68 74 30
-2.667 1.86 -1.916 89 83 59
-2.667 2.297 -2.431 87 89 42
-2.667 1.721 -1.279 107 104 59
-2.667 2.32 -2.431 96 98 48
-2.667 2.366 -2.426 112 115 60
-2.667 1.929 -2.426 90 97 56
-3.601 1.583 0.14 102 111 46
-3.601 1.215 0.777 139 150 72
-3.601 0.892 1.032 63 72 15
-3.601 1.053 0.777 137 146 83
-3.601 0.846 1.032 76 84 35
-3.601 0.455 0.777 79 81 32
-3.601 0.823 1.032 113 121 72
-4.371 2.343 0.154 77 75 63
-4.371 2.09 0.282 137 138 140
-4.371 0.224 1.302 69 63 39
-4.371 1.998 0.54 20 12 0
-4.371 2.366 0.154 102 99 90
-4.371 0.708 1.561 93 96 67
-3.816 2.067 -1.414 44 43 13
-3.816 1.077 0.626 26 21 0
-3.816 2.274 -1.29 90 91 60
-3.816 1.399 -0.009 80 89 36
-3.816 0.478 0.372 58 53 31
-4.346 1.952 -0.218 110 136 151
-4.346 1.952 -0.345 102 128 141
-4.346 1.33 0.033 123 132 79
-4.346 0.432 1.313 73 73 49
-4.346 1.284 0.163 122 132 82
-2.056 2.228 -2.8 86 95 48
-2.056 0.616 -1.521 89 90 50
-2.056 0.34 -1.397 77 73 44
-2.056 0.224 -1.139 143 139 104
-2.056 1.33 -2.034 85 89 52
-2.056 1.813 -2.673 73 81 34
-3.947 0.409 0.552 60 62 22
-3.947 0.685 0.68 131 135 84
-4.033 1.998 -1.707 131 157 146
-4.033 2.159 -0.938 129 158 172
-4.033 1.86 -1.961 119 124 83
-4.033 2.251 -0.814 130 155 151
-4.033 0.685 0.593 80 80 44
-4.033 1.79 -1.961 113 122 75
-4.033 1.33 -0.173 40 28 14
-4.033 0.455 0.593 71 71 35
-4.033 2.274 -0.814 129 152 144
-0.705 0.892 -3.348 102 99 58
-0.705 1.606 -2.071 47 51 24
-4.004 0.731 0.75 66 66 28
-4.004 0.317 0.877 35 38 11
-4.004 1.606 -1.165 126 136 63
-4.004 1.261 0.241 100 104 45
-3.756 1.399 0.187 101 109 52
-3.756 0.961 0.953 108 113 49
-2.542 1.537 -1.236 159 128 97
-2.542 0.432 -0.853 84 82 43
-2.542 0.432 -0.211 74 76 27
-2.542 1.514 -1.236 165 140 99
-2.542 1.929 -2.512 80 89 42
-2.542 1.975 -2.511 77 78 36
-2.542 0.524 0.044 65 68 23
-2.542 0.409 -0.211 82 84 34
-2.542 1.952 -2.511 78 85 41
-2.542 1.998 -2.512 112 110 71
-1.896 0.247 -1.414 48 46 23
-1.896 0.708 -1.672 57 56 28
-1.896 1.721 -2.438 123 129 93
-1.896 1.883 -2.568 91 99 48
-1.896 1.629 -2.31 93 96 65
-1.131 0.731 -2.735 58 51 25
-1.131 1.146 -2.477 70 71 39
-1.131 1.929 -2.222 72 77 45
-1.131 0.593 -2.735 81 75 51
-1.131 0.616 -2.735 74 68 44
-1.131 2.297 -2.608 104 111 95
-2.053 2.182 -2.783 110 120 68
-2.053 0.547 -1.505 69 69 35
-2.053 0.478 -1.506 45 41 12
-2.053 0.938 -1.76 79 76 35
-2.053 0.524 -1.507 41 38 7
4.437 1.079 -1.11 131 130 102
4.437 0.214 -0.504 139 144 114
4.437 1.583 -1.544 152 129 111
4.437 1.223 -1.347 99 73 72
4.437 1.391 -1.316 105 100 80
4.437 1.535 -1.473 78 55 37
4.437 2.087 -1.568 146 147 129
4.437 1.775 -1.725 87 95 74
4.437 2.303 -1.795 121 120 92
4.437 1.631 -1.629 81 64 44
4.437 1.151 -1.381 34 17 9
4.437 1.271 -1.259 191 174 166
4.437 2.279 -1.807 125 126 94
4.437 2.207 -1.758 147 150 123
4.437 2.255 -1.806 139 140 108
4.437 2.159 -1.663 164 165 147
4.437 0.142 -0.48 149 157 118
4.437 0.262 -0.522 7 11 0
4.437 2.231 -1.787 114 117 86
4.437 0.647 -0.77 94 88 66
4.437 0.383 -0.456 78 81 64
4.437 1.655 -1.649 75 63 41
4.437 0.19 -0.493 149 154 122
4.437 1.031 -0.976 149 148 117
4.437 0.334 -0.498 23 26 5
4.437 1.919 -1.607 117 119 98
4.437 1.559 -1.515 123 97 80
4.437 0.887 -0.932 190 185 163
4.437 1.967 -1.448 110 120 95
4.437 0.503 -0.452 176 171 139
4.437 2.039 -1.437 129 133 106
4.437 1.175 -1.389 36 15 12
4.437 2.135 -1.638 155 156 140
4.437 2.063 -1.51 127 129 107
4.437 1.463 -1.341 87 81 57
4.437 1.343 -1.259 143 136 120
4.437 0.238 -0.515 78 82 55
4.437 0.551 -0.534 178 173 144
4.437 0.743 -0.893 70 65 46
4.437 0.166 -0.487 132 138 102
4.437 2.351 -1.795 132 127 107
4.437 0.983 -0.957 78 77 46
4.437 1.295 -1.231 144 126 116
4.437 1.199 -1.391 28 2 1
4.437 1.799 -1.762 86 93 75
4.437 0.911 -0.947 197 192 170
4.437 0.431 -0.418 113 117 103
4.437 1.871 -1.759 132 131 113
4.437 0.719 -0.885 59 52 33
4.437 1.751 -1.696 127 135 112
4.437 0.31 -0.516 18 22 0
4.437 0.935 -0.955 129 125 100
4.437 1.127 -1.317 13 1 0
4.437 2.015 -1.403 130 136 108
4.437 0.767 -0.899 65 60 41
4.437 1.367 -1.287 162 157 138
4.437 0.455 -0.412 94 97 78
4.437 1.847 -1.792 114 115 97
4.437 1.895 -1.694 84 83 63
4.437 1.511 -1.413 77 62 41
4.437 1.727 -1.665 98 103 80
4.437 0.815 -0.919 64 61 42
4.437 0.599 -0.636 74 68 42
4.437 1.487 -1.37 61 53 30
4.437 1.703 -1.658 58 58 34
4.437 1.943 -1.517 124 129 106
4.437 2.111 -1.608 165 166 150
4.437 0.527 -0.487 201 196 166
4.437 0.959 -0.952 100 96 67
4.437 0.358 -0.481 41 44 25
4.437 1.991 -1.407 118 128 101
4.437 2.327 -1.795 134 132 107
4.437 2.375 -1.795 114 109 89
4.437 2.183 -1.704 133 135 113
4.437 1.103 -1.228 75 68 49
4.437 0.695 -0.869 22 15 0
4.437 0.407 -0.435 109 113 98
4.437 1.823 -1.792 117 120 103
4.437 1.415 -1.327 104 99 77
4.437 1.247 -1.294 165 146 139
4.437 0.575 -0.582 99 94 65
4.437 1.319 -1.231 74 60 49
4.437 0.839 -0.931 60 58 37
4.437 0.671 -0.83 73 66 47
4.437 1.439 -1.324 110 104 82
4.437 0.623 -0.701 146 140 116
4.437 1.607 -1.583 41 20 1
4.437 0.479 -0.429 101 100 72
4.437 0.286 -0.523 6 10 0
4.437 0.863 -0.931 63 58 38
4.437 1.055 -1.028 128 127 97
4.437 0.791 -0.906 61 56 37
4.437 1.679 -1.649 73 67 45
4.437 1.007 -0.953 109 109 75
4.437 0.118 -0.48 123 131 90
-2.709 1.169 -0.229 143 155 79
-2.709 1.744 -1.253 132 141 74
-2.709 0.547 0.151 18 23 0
-2.709 2.343 -2.402 84 87 34
-2.709 0.317 0.151 75 79 42
-2.709 2.366 -2.402 99 102 47
-2.709 2.32 -2.402 84 86 36
-2.709 0.34 0.151 63 67 30
-2.734 2.021 -1.135 110 116 68
-2.734 2.251 -0.88 80 88 37
-2.734 2.228 -0.877 121 131 68
-2.734 2.32 -0.88 56 61 29
-2.734 2.136 -0.88 129 138 81
-2.734 2.182 -0.877 119 129 68
-2.734 2.205 -0.877 102 113 47
-2.504 1.86 -1.797 81 80 50
-2.504 0.524 -1.669 86 83 66
-2.504 1.33 -0.388 121 122 65
-2.504 0.34 -0.392 107 106 58
-2.504 2.159 -2.563 66 69 16
-2.504 2.136 -2.563 76 79 26
-2.504 1.399 -1.027 132 126 76
-2.504 2.182 -2.563 71 74 21
-2.504 0.8 0.12 62 64 40
-2.504 1.744 -1.285 132 118 109
-3.143 0.224 0.594 85 89 56
-3.143 0.27 0.593 15 19 0
-3.143 0.938 0.469 69 74 34
-3.143 1.238 0.725 97 106 41
-3.143 0.201 0.594 65 69 36
-3.143 1.998 -0.429 110 113 68
-3.143 0.247 0.593 41 45 12
-2.349 0.708 -1.331 123 112 90
-2.349 1.698 -1.463 106 102 73
-2.349 0.224 -1.332 93 95 55
-2.349 1.514 -1.841 44 40 2
-2.349 1.652 -1.33 65 44 23
-2.349 1.583 -1.718 100 89 59
-2.349 0.754 -0.055 71 76 35
-2.077 0.224 -1.124 141 135 101
-2.077 1.307 -2.022 102 106 69
-2.077 1.192 -2.018 66 72 28
-2.077 0.616 -1.51 82 82 44
-2.077 0.363 -1.382 55 50 21
-2.077 1.077 -1.892 89 88 42
-2.077 1.79 -2.658 85 93 46
-2.077 0.892 -1.639 135 131 102
-2.239 1.077 -1.371 180 173 147
-2.239 1.468 -2.519 94 99 58
-2.239 1.215 -0.223 49 51 12
-2.239 1.146 -0.857 76 73 38
-2.239 1.03 -1.5 173 164 133
-4.164 1.767 -1.273 111 126 87
-4.164 1.053 0.52 82 83 43
-4.164 2.113 -0.503 113 137 141
-4.164 0.961 0.648 89 95 51
-4.164 1.698 -1.146 121 123 86
-4.164 2.205 -0.375 94 123 127
-4.164 1.837 -0.631 77 86 55
-4.164 0.662 1.03 66 64 41
-3.145 0.317 0.584 46 50 17
-3.145 0.293 0.584 79 83 50
-2.271 2.228 -2.698 92 94 31
-2.271 0.386 -1.292 107 104 71
-2.271 1.053 -1.291 127 120 92
-2.271 2.205 -2.698 120 122 59
-2.271 2.274 -2.697 94 96 33
-2.271 2.343 -2.697 113 114 54
-2.271 2.297 -2.697 117 118 58
-2.271 2.32 -2.697 111 112 52
-2.271 2.366 -2.697 120 121 61
-2.271 2.251 -2.697 87 89 26
-2.271 0.524 -1.418 84 77 51
-2.097 0.224 -1.105 100 94 62
-2.097 0.593 -1.49 70 69 39
-2.097 0.317 -1.233 132 126 92
-2.097 1.077 -1.873 74 73 27
-2.097 0.57 -1.49 88 86 61
-4.145 2.228 -0.399 103 128 125
-4.145 1.238 0.109 89 100 40
-4.145 0.432 1.132 51 53 31
-2.136 2.251 -2.855 71 86 47
-2.136 0.501 -1.45 51 42 27
-2.136 2.067 -2.722 62 72 35
-2.136 1.56 -2.6 93 97 62
-2.136 2.044 -2.722 66 76 39
-0.857 0.386 -2.899 142 130 90
-0.857 1.445 -2.135 41 42 28
-0.857 2.297 -2.136 109 111 108
-0.857 1.123 -2.899 100 101 67
-3.24 0.224 0.703 128 134 90
-3.24 2.205 -0.573 63 70 28
-3.24 0.616 0.577 129 138 75
-3.24 0.201 0.703 56 61 20
-3.24 0.247 0.703 110 115 75
-4.3 0.547 1.434 72 76 49
-4.3 1.652 0.413 136 134 75
-4.3 1.837 -0.35 112 129 139
-4.3 0.639 1.437 43 50 19
-4.3 0.616 1.437 34 41 10
-4.3 0.57 1.434 78 84 56
-4.3 0.524 1.434 72 72 44
-4.3 0.593 1.437 58 64 36
-0.691 0.455 -3.016 103 86 60
-0.691 1.583 -2.504 43 47 24
-0.691 1.606 -2.123 46 50 27
-0.691 2.044 -2.124 58 61 54
-0.691 1.053 -3.016 106 104 81
-4.659 1.998 1.136 107 112 56
-4.659 1.767 1.009 93 103 50
-4.659 1.399 0.754 89 91 52
-4.659 1.053 1.136 108 107 50
-1.343 2.297 -2.742 112 121 74
-1.343 0.27 -2.231 51 51 27
-1.343 2.32 -2.742 117 126 79
-1.343 0.639 -2.103 74 69 50
-1.343 0.915 -2.103 26 22 11
-1.343 1.952 -2.357 94 100 62
-0.817 1.123 -2.935 104 105 71
-0.817 1.399 -2.554 45 51 13
-0.817 1.537 -2.043 34 37 18
0.015 0.27 -3.122 139 120 88
-2.997 0.938 -0.016 51 55 20
-2.997 0.708 0.24 61 67 21
-2.997 1.238 0.241 75 82 30
-2.997 0.639 0.24 58 60 36
-2.997 0.455 0.371 95 103 43
-2.997 0.662 0.24 65 69 36
-2.997 0.478 0.371 114 121 67
-2.997 0.616 0.24 37 38 24
-2.997 0.685 0.24 43 49 3
-2.997 0.731 0.24 73 77 40
-2.997 0.961 -0.141 32 34 10
-2.997 0.754 0.24 51 54 23
-0.532 1.215 -3.045 97 100 73
-0.532 1.813 -2.279 74 79 47
-0.532 0.247 -2.918 200 188 150
-0.532 2.182 -2.02 160 173 192
-0.532 1.698 -2.789 70 76 42
-2.925 1.906 -0.772 74 81 37
-2.925 1.077 -0.005 35 40 0
-2.925 1.883 -0.772 85 93 44
-2.925 1.721 -0.897 77 83 49
-2.925 0.224 0.381 36 40 5
-2.925 0.201 0.381 58 63 23
-2.925 0.984 -0.386 22 23 9
-3.547 0.524 0.819 77 84 32
-2.819 1.86 -1.853 88 91 46
-2.819 0.34 0.19 35 38 9
-2.819 0.363 0.19 26 29 0
-2.819 1.307 -0.832 84 97 43
-2.819 1.1 -0.19 98 104 58
-2.819 1.583 -1.085 89 95 57
-2.819 0.938 -0.062 69 71 47
-2.407 0.731 -0.757 95 94 66
-2.407 0.777 -1.011 82 76 54
-2.407 1.767 -1.776 89 92 63
-2.91 0.317 0.333 29 32 1
-2.91 0.616 0.206 12 14 0
-2.91 1.606 -0.943 70 73 54
-2.91 1.583 -0.942 45 50 18
-2.91 0.547 0.206 66 70 35
-2.91 1.284 -0.814 97 99 50
-2.91 0.639 0.206 48 50 26
-2.91 1.652 -0.943 43 48 16
-2.91 0.685 0.206 67 71 34
-2.91 1.307 -0.816 122 126 65
-2.91 0.662 0.206 88 91 60
-2.91 0.593 0.206 9 11 0
-2.91 0.363 0.333 78 84 40
-2.91 0.57 0.206 56 59 28
-2.91 0.708 0.206 16 20 0
-3.312 0.57 0.697 106 115 50
-3.312 1.537 0.569 86 96 36
-3.312 1.721 0.059 79 82 65
-0.837 1.123 -2.92 95 96 62
-0.837 1.813 -2.024 98 104 68
-0.837 1.376 -2.538 47 52 20
-0.837 1.422 -2.281 51 54 37
-0.837 1.284 -2.79 88 94 58
-1.645 1.307 -1.963 58 61 30
-1.645 1.192 -1.963 90 93 64
-1.645 1.215 -1.963 95 98 69
-1.645 1.606 -2.09 79 83 50
-1.645 1.952 -2.473 70 77 33
-1.645 0.662 -1.705 25 21 9
-1.645 2.113 -2.599 84 93 50
-1.645 0.685 -1.705 31 28 13
-2.553 0.524 0.111 47 50 7
-2.553 0.386 -0.018 84 89 35
-2.553 0.317 -1.042 111 110 66
-2.553 1.192 -0.145 111 121 61
-2.553 1.422 -1.168 116 103 58
-0.646 1.606 -2.771 113 119 83
-0.646 0.455 -3.024 138 119 89
-0.646 0.27 -2.899 122 111 83
-4.076 0.524 0.487 42 36 12
-4.076 0.892 0.872 98 107 50
-4.076 0.386 0.995 90 85 66
-4.076 1.698 -1.813 100 108 48
-4.076 2.044 -0.794 117 144 151
-1.687 1.284 -1.938 78 81 52
-1.687 0.639 -1.679 32 28 17
-1.687 1.192 -1.934 57 60 33
-3.338 1.813 0.172 68 75 31
-3.338 1.56 0.554 99 111 37
-3.338 0.823 0.679 103 112 57
-4.064 2.067 -0.854 142 177 207
-4.064 1.952 -1.874 190 205 184
-4.064 0.293 1.062 76 71 52
-4.064 0.731 0.681 104 105 63
-4.064 0.8 0.807 90 97 46
-4.064 0.27 1.062 70 65 46
-4.001 1.883 -1.912 68 70 31
-4.001 1.053 0.769 105 108 55
-4.001 0.455 0.515 99 99 65
-4.001 0.892 0.897 70 76 16
-0.919 0.869 -2.986 93 90 59
-0.919 1.721 -1.963 57 61 36
-0.919 1.261 -2.729 58 60 38
-0.919 2.205 -2.218 109 112 105
-0.919 0.846 -2.986 87 82 50
-0.919 1.445 -2.089 68 69 55
-0.919 0.685 -2.986 51 47 18
-0.919 0.293 -2.73 84 70 43
-0.919 1.307 -2.603 64 68 41
-0.919 1.698 -1.963 41 44 23
-2.629 2.274 -2.477 102 103 59
-2.629 2.297 -2.477 94 96 47
-2.629 0.247 -1.713 135 123 101
-2.629 1.307 -0.688 150 155 99
-2.629 1.146 -0.048 122 134 58
-2.629 0.478 -1.582 67 62 42
-0.754 0.616 -3.103 119 109 74
-0.754 1.077 -2.976 73 72 42
-0.754 1.952 -2.085 112 118 82
-0.609 0.639 -3.335 121 114 62
-0.609 1.721 -2.311 96 102 66
-0.609 1.284 -2.951 66 70 45
-0.609 0.984 -3.207 93 90 57
-0.609 2.182 -2.058 165 177 193
-4.175 1.192 0.2 91 92 52
-4.175 0.247 1.226 44 46 24
-4.175 1.952 -1.589 151 184 217
-4.175 1.952 -1.461 156 186 222
-4.175 1.514 -0.056 53 39 13
-4.175 0.915 0.711 90 97 55
-4.175 1.79 -1.46 92 105 62
-4.175 1.652 -1.333 116 117 59
-4.175 1.906 -0.69 31 42 26
-1.046 1.906 -2.142 99 104 74
-1.046 1.376 -2.142 36 36 24
-1.046 0.961 -2.91 75 69 53
-1.046 0.293 -2.655 103 101 63
-1.046 1.238 -2.402 93 97 62
-1.046 0.777 -2.91 82 78 41
-0.862 0.409 -2.927 144 131 89
-0.862 0.317 -2.8 110 107 72
-0.862 1.399 -2.288 51 54 37
-0.862 1.077 -2.927 125 125 89
-2.582 0.524 -1.708 67 61 49
-2.582 0.317 0.078 91 96 40
-2.582 1.606 -1.199 55 25 15
-2.582 0.247 0.077 69 73 23
-3.09 0.547 0.371 50 54 21
-3.09 1.56 -0.01 107 116 63
-3.09 0.938 0.118 42 44 20
-3.09 1.215 0.631 71 79 22
-1.96 1.284 -2.022 60 64 27
-1.96 1.007 -1.895 92 97 43
-1.96 0.363 -1.508 33 31 10
0.011 2.182 -1.871 20 23 6
0.011 0.317 -3.145 113 96 66
-1.03 1.284 -2.313 29 31 10
-1.03 2.32 -2.441 163 168 162
-1.03 2.343 -2.438 163 168 162
-1.03 2.297 -2.441 99 104 97
-1.03 1.445 -2.058 12 12 0
-1.03 2.366 -2.438 175 180 176
-1.03 2.274 -2.439 113 116 109
-1.03 1.169 -2.694 145 147 108
-4.267 2.159 -0.298 61 72 76
-4.267 0.984 0.596 92 92 66
-4.267 0.616 1.362 56 61 38
-4.267 0.547 1.358 66 70 47
-4.267 0.593 1.362 51 56 33
-4.267 0.639 1.362 73 78 55
-4.267 0.57 1.362 56 61 38
-4.267 1.744 0.34 80 68 30
-4.267 1.169 0.213 140 138 79
-0.973 2.044 -2.259 89 86 69
-0.973 1.307 -2.383 55 57 35
-0.973 0.409 -2.895 85 76 43
-0.973 1.053 -2.895 91 90 60
2.252 0.503 -1.026 50 50 40
2.252 0.839 -0.499 64 77 59
2.252 2.159 -2.813 175 186 128
2.252 1.223 -1.088 67 68 36
2.252 0.383 -1.028 36 37 32
2.252 1.295 -0.83 123 135 99
2.252 0.358 -1.013 38 39 34
2.252 2.351 -2.814 165 167 166
2.252 0.695 -0.391 76 90 55
2.252 1.679 -1.263 131 131 103
2.252 0.959 -0.896 39 46 28
2.252 0.935 -0.781 63 66 55
2.252 0.743 -0.398 91 107 71
2.252 1.559 -1.355 58 56 31
2.252 0.767 -0.415 88 103 70
2.252 0.815 -0.463 76 92 66
2.252 0.118 -0.743 154 157 138
2.252 2.063 -2.884 197 202 180
2.252 1.511 -1.16 154 154 130
2.252 1.535 -1.243 153 151 126
2.252 0.142 -0.76 145 148 131
2.252 0.911 -0.685 74 76 71
2.252 0.887 -0.605 10 10 10
2.252 1.031 -1.018 101 110 83
2.252 1.151 -1.198 74 76 52
2.252 2.279 -2.807 191 193 188
2.252 2.375 -2.807 185 187 186
2.252 1.871 -2.756 104 115 72
2.252 2.303 -2.829 190 192 191
2.252 0.431 -1.052 44 45 39
2.252 1.271 -0.811 85 97 59
2.252 1.415 -0.944 125 129 104
2.252 2.039 -2.88 214 217 210
2.252 0.671 -0.419 43 54 22
2.252 1.727 -1.438 152 159 118
2.252 1.199 -1.201 70 69 39
2.252 1.991 -2.808 167 171 144
2.252 1.103 -1.182 56 60 37
2.252 1.895 -2.764 94 105 63
2.252 0.334 -0.996 31 32 27
2.252 0.455 -1.042 47 48 42
2.252 1.823 -2.637 120 132 84
2.252 0.623 -0.588 30 38 17
2.252 0.791 -0.433 77 93 64
2.252 1.631 -1.49 81 76 54
2.252 0.863 -0.548 21 26 22
2.252 1.919 -2.742 66 74 35
2.252 1.487 -1.133 61 61 37
2.252 0.214 -0.844 169 171 160
2.252 0.983 -0.962 56 64 41
2.252 2.183 -2.797 134 144 92
2.252 1.247 -0.887 100 108 71
2.252 0.575 -0.902 34 36 23
2.252 1.055 -1.093 119 124 101
2.252 2.111 -2.867 78 88 38
2.252 0.19 -0.813 79 81 68
2.252 1.391 -0.86 170 176 150
2.252 1.703 -1.263 160 164 129
2.252 2.087 -2.881 162 170 133
2.252 0.527 -1.044 51 53 42
2.252 1.127 -1.197 51 55 32
2.252 0.286 -0.944 51 52 47
2.252 2.015 -2.854 199 202 193
2.252 1.319 -0.821 152 163 129
2.252 2.327 -2.828 173 174 176
2.252 0.551 -1 47 49 38
2.252 1.943 -2.741 63 71 32
2.252 0.479 -1.022 51 51 41
2.252 0.31 -0.971 34 35 30
2.252 1.655 -1.397 92 90 67
2.252 2.255 -2.79 196 200 186
2.252 1.439 -1.058 74 76 52
2.252 0.599 -0.764 25 29 14
2.252 0.262 -0.908 22 23 17
2.252 0.719 -0.391 85 99 63
2.252 1.751 -1.724 136 143 99
2.252 1.367 -0.804 141 150 121
2.252 1.007 -0.991 56 64 40
2.252 1.175 -1.205 128 128 102
2.252 2.207 -2.778 96 104 65
2.252 1.343 -0.804 103 112 81
2.252 1.967 -2.774 117 123 87
2.252 0.166 -0.781 114 116 102
2.252 1.463 -1.13 109 111 87
2.252 1.583 -1.48 68 64 37
2.252 0.238 -0.877 124 125 117
2.252 1.847 -2.728 85 97 51
2.252 2.231 -2.783 167 173 147
2.252 0.647 -0.432 43 51 27
2.252 1.079 -1.154 71 76 53
2.252 1.607 -1.532 66 62 37
2.252 0.407 -1.042 37 38 33
2.252 2.135 -2.846 151 162 104
2.252 1.799 -2.39 112 122 72
2.252 1.775 -2.082 124 133 86
-4.555 1.906 0.686 58 68 69
-4.555 0.432 1.58 47 43 18
-4.555 1.56 0.556 126 133 92
-4.555 1.261 0.558 125 130 90
-4.555 1.007 1.196 26 23 0
-4.434 0.409 1.345 65 65 41
-4.434 0.34 1.345 35 34 6
-4.434 2.228 0.319 26 34 21
-4.434 0.386 1.345 64 64 40
-4.434 2.159 0.707 78 68 41
-4.434 0.524 1.47 68 71 44
-4.434 0.363 1.345 39 39 13
-2.908 1.629 -0.931 58 61 42
-2.908 1.675 -0.931 76 82 44
-4.677 1.422 0.784 75 75 47
-4.677 1.468 0.783 128 131 86
-4.677 2.136 1.039 116 122 62
-4.677 2.067 1.166 114 120 60
-4.677 1.445 0.784 108 109 75
-4.677 1.491 0.785 135 139 88
-4.677 1.583 0.783 187 188 157
-0.419 1.837 -2.425 74 81 39
-0.419 1.86 -2.3 62 67 37
-0.419 1.883 -2.173 52 55 36
-0.419 0.639 -3.446 114 106 57
-0.419 0.731 -3.579 117 110 56
-0.419 0.247 -2.939 119 107 65
-0.419 1.652 -2.939 65 69 44
-1.662 0.547 -1.672 58 53 47
-1.662 2.182 -2.694 91 99 60
-1.662 1.1 -1.928 52 55 28
-1.662 0.915 -1.798 50 53 24
-0.14 0.34 -3.077 116 102 65
-0.14 1.261 -3.331 47 49 25
-0.14 0.593 -3.458 118 108 72
-0.14 1.215 -3.585 79 81 57
-0.14 2.251 -1.798 100 106 102
-3.28 0.224 0.744 106 115 52
-3.28 1.215 0.868 94 102 42
-3.28 2.205 -0.536 71 78 37
-3.28 2.113 -0.533 26 29 10
-3.28 0.201 0.744 95 104 39
-3.28 1.606 0.488 132 144 72
-0.085 1.215 -3.671 68 70 48
-0.085 2.067 -2.01 89 93 60
-0.085 1.744 -3.033 53 57 30
-0.085 2.32 -1.752 125 135 136
-2.742 1.514 -1.051 75 81 33
-2.742 2.067 -2.456 89 90 48
-2.742 1.906 -0.923 110 120 49
-2.742 0.915 0.102 55 58 29
-2.742 1.837 -1.176 97 104 50
-2.742 2.021 -2.455 79 78 34
-1.715 0.386 -1.576 27 24 17
-1.715 0.409 -1.577 30 27 18
-1.715 0.984 -1.831 46 48 26
-1.715 0.224 -1.577 56 47 32
-3.044 1.376 -0.781 42 42 16
-3.044 1.376 0.112 152 158 98
-3.044 1.215 0.499 100 109 42
-3.044 1.56 -0.523 108 118 57
-3.044 0.8 0.243 60 67 16
-3.994 0.34 0.804 70 74 41
-3.994 0.224 0.936 30 26 0
-3.994 2.251 -0.982 68 79 47
-3.994 2.366 -1.109 83 86 79
-3.994 2.113 -1.108 98 124 137
-3.994 0.708 0.676 29 29 0
-3.994 2.274 -0.982 99 110 78
-3.994 1.952 -1.874 114 123 94
-4.344 0.317 1.195 87 81 55
-4.344 1.215 0.175 132 139 95
-4.344 1.007 0.684 6 2 0
-4.344 0.34 1.195 71 67 42
-4.344 1.606 0.427 120 129 62
-0.827 0.846 -2.991 160 147 113
-0.827 1.698 -1.969 21 24 5
-0.827 1.491 -2.099 59 61 47
-0.827 0.201 -2.738 83 85 63
-0.827 1.376 -2.611 30 36 0
-0.827 1.721 -1.969 20 24 0
-0.827 0.593 -2.991 124 107 77
-0.827 0.57 -2.991 170 147 115
-0.827 0.869 -2.991 84 78 46
-0.827 1.238 -2.863 54 57 26
-0.827 1.445 -2.225 50 52 38
-3.911 2.343 -1.297 23 30 0
-3.911 0.317 0.62 106 112 66
-3.911 0.34 0.62 127 134 83
-3.911 2.159 -1.423 75 77 53
-1.903 1.261 -1.962 52 56 23
-1.903 0.616 -1.581 84 82 57
-1.903 1.929 -2.606 107 115 64
-1.903 2.113 -2.73 94 103 58
-1.903 1.169 -1.962 63 67 34
-1.903 1.399 -1.965 68 72 39
-1.903 1.215 -1.962 69 73 40
-1.903 1.238 -1.962 43 47 14
-1.903 1.192 -1.962 87 91 58
-0.449 0.777 -3.613 98 92 40
-0.449 0.984 -3.742 80 77 44
-0.449 0.478 -3.101 96 83 48
-0.449 1.123 -3.23 90 92 55
-0.449 1.583 -2.975 66 70 45
-0.449 0.892 -3.742 91 92 52
-0.449 0.293 -2.974 111 97 58
-0.449 0.547 -3.229 101 88 54
-3.675 1.86 -0.902 80 91 35
-3.675 1.906 -1.032 67 69 47
-3.675 1.975 -1.033 109 105 68
1.988 1.871 -1.968 206 204 156
1.988 1.559 -0.937 128 135 101
1.988 1.055 -0.702 86 83 68
1.988 0.238 -0.765 6 8 0
1.988 0.647 -0.776 105 110 88
1.988 2.063 -1.868 78 87 56
1.988 1.223 -0.75 73 76 57
1.988 1.487 -0.879 84 92 53
1.988 1.799 -0.99 83 105 58
1.988 0.358 -0.828 115 117 95
1.988 0.983 -0.734 70 69 48
1.988 0.503 -0.883 174 176 163
1.988 1.703 -0.851 145 154 127
1.988 0.118 -0.684 114 125 83
1.988 1.103 -0.7 113 111 98
1.988 1.127 -0.708 75 76 62
1.988 1.295 -0.771 66 68 46
1.988 0.31 -0.809 117 121 98
1.988 1.199 -0.742 78 82 65
1.988 0.695 -0.381 39 48 21
1.988 0.262 -0.776 30 33 16
1.988 0.551 -0.959 35 37 24
1.988 1.895 -2.113 179 171 125
1.988 0.527 -0.924 110 112 99
1.988 0.19 -0.726 72 76 59
1.988 1.655 -0.924 90 98 75
1.988 1.343 -0.799 124 127 98
1.988 1.583 -0.952 134 141 107
1.988 1.847 -1.648 171 179 130
1.988 2.255 -1.698 120 118 95
1.988 1.511 -0.89 93 101 64
1.988 2.015 -2.034 152 157 116
1.988 1.271 -0.763 51 53 32
1.988 0.743 -0.402 75 84 57
1.988 1.535 -0.908 99 107 70
1.988 2.183 -1.72 119 126 92
1.988 2.231 -1.706 100 101 70
1.988 0.815 -0.493 52 61 40
1.988 0.911 -0.628 145 150 118
1.988 0.383 -0.839 13 14 0
1.988 1.391 -0.836 147 153 117
1.988 0.863 -0.53 153 160 127
1.988 0.935 -0.673 96 101 71
1.988 0.334 -0.818 179 181 157
1.988 1.079 -0.697 109 106 91
1.988 1.607 -0.957 117 124 93
1.988 2.207 -1.714 81 85 52
1.988 0.455 -0.847 83 80 73
1.988 0.407 -0.848 1 2 0
1.988 1.007 -0.726 48 45 26
1.988 2.111 -1.754 119 129 102
1.988 1.463 -0.864 113 119 81
1.988 1.175 -0.734 98 101 84
1.988 1.319 -0.783 79 81 57
1.988 0.839 -0.516 86 94 70
1.988 1.031 -0.72 20 17 0
1.988 2.375 -1.798 124 128 95
1.988 0.887 -0.57 152 159 125
1.988 1.751 -0.852 101 119 81
1.988 0.959 -0.717 51 53 29
1.988 1.823 -1.316 113 129 80
1.988 0.575 -0.99 92 94 80
1.988 0.431 -0.841 40 37 28
1.988 1.247 -0.749 48 50 29
1.988 1.727 -0.844 119 133 100
1.988 1.967 -2.112 116 112 64
1.988 0.623 -0.966 85 90 70
1.988 2.279 -1.712 118 116 95
1.988 0.166 -0.707 147 152 129
1.988 2.087 -1.809 91 102 72
1.988 1.919 -2.119 172 161 115
1.988 1.151 -0.728 76 79 62
1.988 0.599 -1.008 115 118 101
1.988 2.351 -1.789 120 123 92
1.988 0.671 -0.451 24 32 8
1.988 0.791 -0.469 72 82 58
1.988 1.415 -0.841 138 144 108
1.988 1.679 -0.885 116 121 98
1.988 1.439 -0.849 127 133 95
1.988 1.943 -2.116 152 141 95
1.988 0.142 -0.692 139 146 113
1.988 2.159 -1.727 121 131 97
1.988 2.135 -1.731 141 152 122
1.988 1.367 -0.82 125 128 97
1.988 2.039 -1.965 113 121 84
1.988 0.719 -0.385 79 88 61
1.988 0.767 -0.444 74 84 59
1.988 1.991 -2.081 152 151 105
1.988 0.479 -0.855 97 97 87
1.988 2.327 -1.759 123 123 97
1.988 0.286 -0.793 41 44 23
1.988 1.631 -0.949 92 100 76
1.988 0.214 -0.749 14 18 4
1.988 2.303 -1.733 105 103 80
1.988 1.775 -0.865 85 108 64
-2.055 0.593 -1.515 49 49 11
-2.055 0.846 -1.643 23 20 1
-2.055 1.238 -2.027 84 91 50
-2.055 0.869 -1.643 73 71 50
-2.055 0.57 -1.515 51 51 15
-2.055 0.201 -1.133 146 141 109
-1.718 0.777 -1.722 31 28 11
-1.718 0.455 -1.594 29 25 14
-1.718 1.929 -2.489 60 68 17
-1.718 2.205 -2.743 71 78 45
-1.718 1.79 -2.363 78 85 43
-0.886 1.215 -2.803 45 47 23
-0.886 0.432 -2.934 119 104 63
-0.886 0.984 -2.934 44 41 8
-0.886 0.961 -2.934 51 48 17
-2.792 1.698 -1.069 62 63 23
-2.792 1.929 -2.342 74 76 27
-2.792 1.675 -1.066 52 50 27
-2.792 1.353 -0.938 82 86 61
-2.752 0.616 0.171 70 76 32
-2.752 1.03 -0.084 93 99 53
-2.752 0.57 0.171 72 77 36
-2.752 2.113 -0.847 92 101 44
-2.752 1.583 -1.102 97 107 57
-2.752 1.238 -0.719 37 43 9
-2.752 0.777 0.171 67 70 43
-2.752 0.754 0.171 42 45 16
-2.752 1.053 -0.084 84 90 42
-2.752 0.8 0.171 61 64 35
-2.752 0.846 0.171 62 67 27
-2.752 0.639 0.171 63 70 18
-2.752 0.938 0.048 83 86 55
-2.752 0.869 0.171 48 53 13
-2.752 2.136 -0.847 114 123 66
-2.752 0.708 0.171 71 78 27
-2.752 1.883 -2.254 99 97 59
-2.752 1.077 -0.082 84 91 39
-2.752 0.662 0.171 75 83 26
-2.752 2.297 -0.851 41 47 13
-2.752 2.159 -0.847 119 129 69
-2.752 0.593 0.171 80 85 45
-2.752 0.685 0.171 89 97 40
-2.752 0.823 0.171 55 59 24
-2.752 2.274 -0.851 60 67 25
-2.752 0.731 0.171 58 62 25
-0.156 1.998 -2.141 92 100 49
-0.156 1.146 -3.93 91 94 67
-0.156 0.984 -4.057 96 104 47
-0.156 0.27 -3.033 170 161 130
-3.105 1.353 0.674 98 107 50
-3.105 0.224 0.545 100 106 62
-3.105 2.136 -0.601 63 65 41
-3.105 0.915 0.162 71 73 49
-3.105 1.238 0.674 86 94 35
-3.105 2.113 -0.601 68 70 46
-3.105 0.201 0.545 94 100 52
-0.092 0.662 -3.581 106 103 52
-0.092 0.501 -3.326 125 111 64
-0.092 0.27 -3.068 104 87 59
-0.092 1.33 -3.326 54 59 27
-0.092 0.317 -3.069 114 98 65
-0.092 0.432 -3.196 114 100 51
-0.092 1.238 -3.58 73 75 51
-2.008 0.501 -1.515 69 66 35
-2.008 0.754 -1.646 65 63 42
-2.008 1.376 -2.029 84 88 51
-2.008 1.053 -1.899 106 111 57
-2.008 1.86 -2.665 98 106 59
-2.008 0.386 -1.515 89 85 60
-4.542 1.238 0.625 124 129 88
-4.542 0.731 1.651 85 87 66
-4.542 1.744 0.37 104 121 128
-4.542 1.952 0.881 136 142 114
-4.542 0.27 1.776 32 35 6
-4.542 1.629 0.499 132 142 105
-3.264 0.961 0.7 70 75 35
-3.264 0.8 0.573 74 78 45
-3.264 0.984 0.7 61 67 23
-3.264 1.007 0.7 70 76 32
-3.264 0.639 0.574 97 104 50
-3.264 0.938 0.7 52 55 24
-3.264 0.293 0.7 33 36 7
-2.24 1.238 -0.225 68 72 39
-2.24 1.33 -1.121 173 171 122
-2.24 1.146 -0.353 104 105 63
-2.24 1.353 -0.993 135 135 85
-1.379 0.363 -2.17 73 74 34
-1.379 0.593 -2.046 27 24 7
-1.379 0.293 -2.173 69 70 36
-1.379 1.744 -2.17 75 81 47
-1.987 0.524 -1.53 57 56 28
-1.987 1.399 -2.039 80 84 47
-1.987 2.251 -2.808 84 93 48
-1.987 0.432 -1.526 51 49 24
-1.987 0.501 -1.53 51 50 22
-2.641 0.708 0.139 87 92 51
-2.641 0.8 0.139 76 81 41
-2.641 2.366 -1.266 138 141 84
-2.641 0.478 0.139 59 64 23
-2.641 0.455 0.139 87 93 47
-2.641 0.409 0.139 114 122 65
-2.641 0.685 0.138 99 105 59
-3.391 2.044 -0.247 83 92 37
-3.391 1.077 0.901 85 91 45
-3.391 1.307 0.773 109 115 67
-3.391 0.8 0.773 120 130 69
-3.391 1.053 0.901 99 106 55
-0.555 0.547 -3.17 205 193 171
-0.555 1.238 -3.041 87 89 65
-0.555 1.146 -3.041 65 65 39
-0.555 1.1 -3.041 107 107 79
-0.555 1.03 -3.171 89 86 51
-0.555 0.247 -2.914 171 159 121
-0.555 0.616 -3.296 106 96 47
-0.555 1.077 -3.041 94 93 65
-0.555 1.123 -3.041 83 83 57
-3.975 1.215 0.528 121 131 58
-3.975 1.883 -1.903 98 103 63
-3.975 0.593 0.401 22 22 0
-3.975 0.846 0.908 132 136 77
-3.975 0.224 0.782 79 75 50
-3.975 0.501 0.401 25 18 0
-3.975 0.823 0.908 119 122 67
-3.975 1.169 0.657 146 154 79
-3.975 1.79 -1.901 64 72 31
-3.975 0.869 0.908 132 137 73
-2.388 0.731 -0.011 94 100 56
-2.388 0.731 -0.522 81 81 53
-2.388 1.767 -2.567 67 68 24
-2.388 1.767 -1.419 113 110 91
-2.388 1.883 -2.567 77 78 34
-2.388 1.468 -2.568 91 97 53
-2.388 1.744 -1.289 54 48 36
-2.388 0.57 -1.42 124 118 86
-2.388 1.652 -2.568 99 101 54
-2.085 0.731 -1.551 61 60 29
-2.085 1.03 -1.807 110 109 65
-2.085 1.883 -2.703 102 109 65
-2.085 1.652 -2.576 96 103 59
-2.42 1.883 -2.487 67 77 25
-2.42 2.205 -2.613 78 81 24
-2.42 1.721 -2.612 91 94 49
-2.42 1.445 -1.21 164 146 110
-2.42 0.685 -1.079 78 73 51
-2.42 0.777 -1.339 126 116 89
-2.42 2.182 -2.613 87 90 33
-2.42 1.56 -2.613 72 78 30
-2.42 1.652 -1.335 128 100 86
-2.42 1.192 -0.059 56 65 12
-1.73 0.616 -1.66 40 36 25
-1.73 1.238 -1.913 69 73 38
-1.73 1.537 -2.041 87 91 54
-1.73 0.57 -1.66 34 30 19
-1.73 0.593 -1.66 47 43 32
-1.73 0.915 -1.787 52 50 35
-1.73 1.169 -1.916 44 47 16
-1.73 1.146 -1.916 70 73 44
-3.87 1.56 0.076 129 138 59
-3.87 1.606 -0.816 95 104 39
-3.87 2.159 -1.458 70 68 45
-2.71 0.432 0.145 77 81 48
-2.71 0.524 0.145 52 56 21
-2.71 1.192 -0.366 124 134 71
-2.71 1.606 -1.128 91 99 48
-2.71 1.537 -1.128 74 75 35
-2.71 0.409 0.145 67 71 38
-2.71 0.892 0.145 69 72 41
-2.71 1.491 -1.128 50 47 16
-2.71 0.386 0.145 57 61 26
-2.71 1.629 -1.128 70 78 29
-2.71 1.652 -1.129 50 57 15
-2.71 1.86 -2.023 113 107 81
-2.71 0.363 0.145 74 78 43
-0.036 1.813 -2.763 48 54 18
-0.036 1.998 -2.256 96 101 61
-0.036 1.629 -3.148 52 58 24
-0.036 0.386 -3.148 121 106 63
-1.346 1.975 -2.378 94 100 62
-1.346 1.284 -2.119 29 31 10
-1.346 2.366 -2.758 134 144 94
-1.346 2.09 -2.501 80 88 47
-1.346 2.182 -2.628 59 67 28
-1.346 0.938 -2.12 46 40 28
-2.525 0.432 -0.375 102 101 57
-2.525 1.146 0.007 115 124 67
-2.525 1.123 0.008 77 85 36
-2.525 2.159 -2.548 75 77 28
-2.525 0.777 0.136 71 74 45
-2.525 0.731 0.136 84 89 49
-2.525 0.708 0.136 95 99 62
-2.525 2.182 -2.548 71 73 24
-2.525 0.27 -1.782 145 142 99
-2.525 2.136 -2.548 82 84 37
-2.525 0.754 0.136 98 102 65
-2.525 1.1 0.004 75 82 40
-2.525 0.363 -0.247 66 68 18
-2.525 0.57 0.136 52 57 17
-2.525 1.468 -1.269 184 168 117
-2.525 1.053 0.005 75 81 43
-3.172 0.8 0.435 109 117 57
-3.172 0.777 0.437 120 129 64
-3.172 0.846 0.435 91 97 51
-3.172 1.583 0.437 121 130 73
-3.172 1.537 0.564 51 58 16
-3.172 0.869 0.435 64 70 26
-3.172 0.754 0.437 84 92 32
-3.172 1.883 -0.457 89 93 56
-3.172 1.883 -0.712 91 89 68
-3.172 1.652 -0.072 70 80 20
-3.172 0.823 0.435 95 102 50
-4.135 2.182 -0.476 130 165 187
-4.135 2.067 -0.599 63 76 66
-4.135 1.767 -0.987 136 151 118
-4.135 1.652 -1.753 83 84 26
-4.135 1.998 -1.115 146 179 210
-4.135 0.708 0.803 31 30 0
-1.999 0.984 -1.851 89 91 41
-1.999 0.27 -1.341 62 57 37
-1.999 0.846 -1.72 67 66 35
-1.999 1.998 -2.742 134 141 99
-1.999 0.685 -1.596 70 69 39
-2 0.869 -1.727 68 68 34
-2 1.192 -1.981 79 86 42
-2 0.34 -1.474 42 37 15
-2 1.767 -2.623 89 97 50
-2 2.067 -2.747 77 86 41
-1.734 0.27 -1.556 32 24 13
-1.734 0.293 -1.556 32 25 15
-1.734 0.685 -1.684 25 21 10
-1.734 2.067 -2.573 102 111 68
-1.734 0.938 -1.808 19 20 4
-1.734 1.33 -1.94 63 67 34
-1.734 0.247 -1.556 27 17 5
-1.734 0.34 -1.556 26 21 15
-1.734 0.317 -1.556 29 25 16
-1.734 0.708 -1.684 35 31 20
-1.734 2.32 -2.831 67 75 36
-1.734 0.363 -1.556 20 17 10
-1.75 1.1 -1.898 28 31 2
-2.274 1.123 -0.921 96 93 60
-2.274 1.123 -0.794 141 138 105
-2.274 0.915 -0.286 88 82 56
-2.274 1.376 -1.432 173 165 126
-2.274 1.399 -1.181 111 105 69
-2.274 0.961 -0.668 53 48 16
-2.274 1.077 -0.538 132 130 92
-2.274 0.27 -1.179 78 81 52
-2.274 1.307 -2.198 52 56 21
-2.274 1.007 -0.156 80 80 30
-2.274 0.938 -0.543 42 37 7
-3.342 0.247 0.785 1 3 0
-3.342 0.8 0.658 100 109 52
-3.342 2.09 -0.237 66 73 29
-3.342 1.514 0.658 140 151 73
-3.342 0.639 0.661 70 79 26
-3.342 1.606 0.531 139 152 72
