ply
format ascii 1.0
comment VCGLIB generated
element vertex 1648
property float x
property float y
property float z
property uchar red
property uchar green
property uchar blue
element face 0
property list uchar int vertex_indices
end_header
-3.033 2.647 -1.275 51 53 52
-3.033 3.23 -1.201 72 72 72
-3.033 0.407 -2.045 72 68 67
-3.033 2.423 -1.354 76 75 73
-3.033 2.109 -1.446 132 118 117
-3.033 1.751 -1.578 89 88 86
-3.033 1.706 -1.605 56 56 56
-3.033 1.348 -1.648 67 63 60
-3.033 2.513 -1.313 79 79 79
-3.033 2.602 -1.282 63 65 64
-3.033 1.168 -1.706 57 54 49
-3.033 -0.041 -2.084 74 70 69
-3.033 1.796 -1.541 109 104 100
-3.033 3.006 -1.212 68 72 71
-3.033 1.437 -1.61 87 86 84
-3.033 3.543 -1.215 53 53 53
-3.033 3.498 -1.208 69 69 69
-3.033 0.048 -2.079 114 110 109
-3.033 2.826 -1.249 44 50 48
-3.033 0.81 -1.799 90 89 87
-3.033 0.496 -2.001 53 52 50
-3.033 2.289 -1.376 94 89 86
-3.033 2.065 -1.462 119 105 104
-3.033 1.527 -1.605 79 77 78
-3.033 0.362 -2.056 76 70 70
-3.033 -0.265 -2.098 66 66 64
-3.033 0.541 -1.97 40 38 39
-3.033 3.678 -1.257 92 92 92
-3.033 0.72 -1.841 63 63 63
-3.033 0.183 -2.069 111 105 105
-3.033 3.723 -1.278 75 75 75
-3.033 3.05 -1.201 87 89 88
-3.033 3.319 -1.201 70 70 70
-3.033 2.244 -1.392 100 92 90
-3.033 0.9 -1.766 63 60 55
-3.033 0.765 -1.82 74 74 74
-3.033 1.572 -1.605 86 84 85
-3.033 0.138 -2.069 102 96 96
-3.033 0.451 -2.026 76 72 71
-3.033 0.003 -2.079 79 75 74
-3.033 0.944 -1.751 56 51 45
-3.033 3.588 -1.227 71 71 71
-3.033 3.633 -1.241 113 113 113
-3.033 2.871 -1.234 37 43 41
-3.033 2.199 -1.413 84 74 73
-3.033 1.661 -1.605 59 59 59
-3.033 1.079 -1.733 59 54 50
-3.033 3.902 -1.32 67 67 67
-3.033 -0.221 -2.098 58 58 56
-3.033 2.782 -1.257 40 46 44
-3.033 3.185 -1.194 85 85 85
-3.033 2.378 -1.361 80 76 75
-3.033 1.482 -1.61 73 72 70
-3.033 1.034 -1.744 54 49 43
-3.033 1.841 -1.525 100 93 87
-3.033 0.676 -1.874 49 50 52
-3.033 0.317 -2.069 92 86 86
-3.033 -0.086 -2.084 77 76 74
-3.033 2.692 -1.272 45 49 48
-3.033 0.272 -2.069 62 56 56
-3.033 0.631 -1.905 52 52 54
-3.033 1.392 -1.637 81 77 74
-3.033 3.364 -1.201 97 97 97
-3.033 3.409 -1.194 97 97 97
-3.033 1.303 -1.664 53 49 46
-3.033 3.767 -1.29 110 110 110
-3.033 2.02 -1.477 120 109 105
-3.033 -0.176 -2.084 47 46 44
-3.033 -0.131 -2.084 54 53 51
-3.033 1.975 -1.488 102 91 87
-3.033 0.586 -1.94 35 35 35
-3.033 1.213 -1.701 49 46 41
-3.033 1.124 -1.722 49 46 41
-3.033 1.885 -1.52 102 93 88
-3.033 2.333 -1.37 86 82 81
-3.033 2.154 -1.425 126 114 114
-3.033 2.737 -1.272 47 51 50
-3.033 2.468 -1.343 82 81 79
-3.033 3.274 -1.201 73 73 73
-3.033 3.454 -1.194 71 71 71
-3.033 2.961 -1.212 57 61 60
-3.033 1.93 -1.504 106 97 92
-3.033 0.093 -2.069 96 90 90
-3.033 -0.31 -2.098 75 75 73
-3.033 2.916 -1.231 54 60 58
-3.033 0.227 -2.069 69 63 63
-3.033 3.14 -1.194 96 96 96
-3.033 1.258 -1.68 40 36 33
-3.033 3.812 -1.304 126 126 126
-3.033 3.857 -1.32 101 101 101
-3.033 3.095 -1.201 94 96 95
-3.033 0.989 -1.751 60 53 45
-3.033 1.617 -1.605 61 61 61
-3.033 0.855 -1.773 83 82 78
-3.167 1 0.84 18 20 32
-3.167 0.003 -2.084 68 67 65
-3.167 1.171 0.753 26 40 51
-3.167 2.647 -1.262 64 66 65
-3.167 0.732 1.066 11 16 22
-3.167 -0.086 -2.098 59 59 57
-3.167 2.68 -0.666 38 47 52
-3.167 2.468 -1.313 80 79 77
-3.167 0.765 -1.805 79 78 76
-3.167 2.169 1.888 11 12 16
-3.167 2.145 1.879 10 11 13
-3.167 2.632 -0.647 26 35 40
-3.167 1.025 0.822 20 22 35
-3.167 0.708 1.091 9 14 20
-3.167 1.168 -1.669 102 97 93
-3.167 2.513 -1.289 106 106 106
-3.167 1.146 0.764 18 32 43
-3.167 1.317 0.756 41 34 42
-3.167 2.826 -0.68 64 73 78
-3.167 2.826 -1.234 52 58 56
-3.167 0.586 -1.929 41 43 42
-3.167 2.692 -1.249 55 59 58
-3.167 0.952 0.888 24 29 35
-3.167 1.268 0.704 29 32 41
-3.167 3.588 -1.219 110 110 110
-3.167 -0.131 -2.098 58 58 56
-3.167 2.242 1.924 7 8 13
-3.167 0.976 0.864 25 29 38
-3.167 2.916 -1.215 74 80 78
-3.167 2.437 1.81 9 17 20
-3.167 1.95 1.829 12 13 15
-3.167 0.927 0.905 22 27 33
-3.167 2.244 -1.376 100 92 90
-3.167 -0.31 -2.109 84 86 83
-3.167 1.804 1.798 10 11 13
-3.167 2.291 1.898 5 8 13
-3.167 1.258 -1.648 81 76 73
-3.167 1.437 -1.605 52 51 49
-3.167 1.56 1.592 42 19 29
-3.167 3.723 -1.278 48 48 48
-3.167 2.871 -1.219 69 75 73
-3.167 2.899 -0.695 59 68 73
-3.167 1.439 1.303 72 41 46
-3.167 3.23 -1.194 64 64 64
-3.167 2.802 -0.679 70 79 84
-3.167 2.485 1.967 10 18 21
-3.167 0.72 -1.831 64 64 64
-3.167 1.487 1.492 63 28 35
-3.167 3.095 -1.188 82 84 83
-3.167 0.879 0.946 17 22 28
-3.167 0.676 -1.859 47 48 50
-3.167 0.989 -1.734 120 111 104
-3.167 0.407 -2.026 83 83 81
-3.167 1.079 -1.701 79 70 65
-3.167 0.854 0.968 14 19 25
-3.167 1.049 0.809 23 26 41
-3.167 1.303 -1.637 96 91 88
-3.167 1.925 1.824 12 13 15
-3.167 2.583 -0.626 59 68 73
-3.167 0.183 -2.079 111 107 106
-3.167 0.944 -1.745 112 103 98
-3.167 0.659 1.132 9 14 20
-3.167 0.048 -2.084 76 75 73
-3.167 2.423 -1.328 94 93 91
-3.167 1.828 1.798 10 11 13
-3.167 1.213 -1.664 98 93 89
-3.167 1.841 -1.488 93 86 80
-3.167 1.348 -1.626 75 71 68
-3.167 2.851 -0.688 62 71 76
-3.167 3.319 -1.201 46 46 46
-3.167 2.023 1.855 13 14 16
-3.167 1.779 1.792 10 11 13
-3.167 1.998 1.848 13 14 16
-3.167 1.244 0.715 32 39 49
-3.167 2.51 -0.692 20 28 31
-3.167 1.885 -1.483 111 104 98
-3.167 0.272 -2.079 83 77 77
-3.167 1.682 1.738 6 11 14
-3.167 2.02 -1.446 101 90 86
-3.167 3.857 -1.32 113 113 113
-3.167 0.317 -2.069 121 117 116
-3.167 1.341 0.79 46 36 44
-3.167 2.412 1.838 3 11 14
-3.167 1.034 -1.719 103 94 87
-3.167 0.83 0.99 12 17 23
-3.167 3.364 -1.201 55 55 55
-3.167 0.138 -2.079 92 88 87
-3.167 1.463 1.422 64 29 35
-3.167 1.901 1.815 11 12 14
-3.167 3.006 -1.201 72 76 75
-3.167 1.877 1.813 11 12 14
-3.167 2.218 1.924 8 9 14
-3.167 2.782 -1.234 50 56 54
-3.167 2.266 1.905 5 8 13
-3.167 0.631 -1.895 54 55 57
-3.167 1.365 0.843 52 37 42
-3.167 1.098 0.787 18 26 39
-3.167 2.289 -1.361 92 87 84
-3.167 1.609 1.713 11 4 11
-3.167 1.392 -1.61 57 53 50
-3.167 2.109 -1.418 121 110 108
-3.167 0.093 -2.084 75 71 70
-3.167 0.451 -2.015 68 68 66
-3.167 1.852 1.802 11 12 14
-3.167 3.185 -1.188 77 77 77
-3.167 3.454 -1.194 87 87 87
-3.167 1.585 1.662 16 1 8
-3.167 1.633 1.739 8 7 12
-3.167 1.796 -1.52 109 106 101
-3.167 2.315 1.907 6 9 14
-3.167 2.199 -1.392 116 106 105
-3.167 1.482 -1.594 53 52 50
-3.167 3.902 -1.328 96 96 96
-3.167 1.122 0.777 13 25 37
-3.167 2.656 -0.659 25 34 39
-3.167 1.731 1.767 5 11 11
-3.167 3.498 -1.208 98 98 98
-3.167 1.751 -1.578 75 75 73
-3.167 2.558 -1.266 93 93 93
-3.167 2.558 -0.608 45 54 59
-3.167 1.974 1.838 12 13 15
-3.167 1.073 0.794 23 29 43
-3.167 1.572 -1.594 68 68 68
-3.167 2.729 -0.672 54 63 68
-3.167 2.096 1.87 12 13 15
-3.167 -0.265 -2.109 83 83 81
-3.167 2.534 -0.579 34 42 45
-3.167 3.05 -1.188 90 92 91
-3.167 2.602 -1.262 76 78 77
-3.167 1.527 -1.594 51 51 51
-3.167 2.461 1.829 10 18 21
-3.167 2.364 1.926 9 14 18
-3.167 2.12 1.87 11 12 14
-3.167 0.805 1.009 11 16 22
-3.167 2.924 -0.695 49 58 63
-3.167 1.661 -1.594 84 86 85
-3.167 2.705 -0.671 48 57 62
-3.167 2.875 -0.694 64 73 78
-3.167 1.219 0.723 34 44 54
-3.167 3.274 -1.201 71 71 71
-3.167 0.684 1.111 9 14 20
-3.167 1.124 -1.68 90 82 79
-3.167 3.14 -1.188 70 70 70
-3.167 3.767 -1.29 100 100 100
-3.167 1.755 1.784 6 10 11
-3.167 0.541 -1.96 28 30 29
-3.167 -0.041 -2.084 68 67 65
-3.167 1.414 1.089 71 45 46
-3.167 1.195 0.728 30 42 54
-3.167 -0.176 -2.098 62 62 60
-3.167 0.855 -1.762 115 110 106
-3.167 2.378 -1.335 98 97 95
-3.167 3.543 -1.208 86 86 86
-3.167 3.678 -1.249 120 120 120
-3.167 1.975 -1.462 80 71 66
-3.167 2.047 1.86 13 14 16
-3.167 1.617 -1.594 89 91 90
-3.167 1.39 0.944 57 37 38
-3.167 0.496 -1.99 44 44 42
-3.167 0.362 -2.045 93 92 90
-3.167 2.333 -1.35 95 91 90
-3.167 1.706 1.745 6 11 14
-3.167 1.706 -1.605 70 72 71
-3.167 0.9 -1.751 117 110 104
-3.167 0.227 -2.079 67 63 62
-3.167 2.154 -1.407 121 109 109
-3.167 1.292 0.725 34 31 40
-3.167 2.339 1.915 6 9 14
-3.167 1.536 1.545 59 29 39
-3.167 2.193 1.906 10 11 16
-3.167 0.81 -1.788 92 88 85
-3.167 2.737 -1.247 52 56 55
-3.167 3.409 -1.194 78 78 78
-3.167 2.753 -0.673 61 70 75
-3.167 1.512 1.526 68 32 42
-3.167 0.781 1.029 14 19 25
-3.167 0.903 0.925 19 24 30
-3.167 1.658 1.747 6 10 13
-3.167 3.812 -1.304 96 96 96
-3.167 2.065 -1.44 100 89 87
-3.167 2.778 -0.673 68 77 82
-3.167 -0.221 -2.098 69 69 67
-3.167 0.757 1.045 13 18 24
-3.167 2.607 -0.635 49 58 63
-3.167 1.93 -1.477 92 83 78
-3.167 3.633 -1.234 140 140 140
-3.167 2.072 1.865 13 14 16
-3.167 0.635 1.147 11 16 22
-3.167 2.388 1.897 4 9 13
-3.167 2.961 -1.201 68 72 71
-4.093 1 1.219 0 0 5
-4.093 1.025 1.147 15 10 16
-4.093 1.852 1.65 58 61 66
-4.093 1.146 1.14 33 15 15
-4.093 2.826 -0.582 45 54 59
-4.093 2.632 -0.526 32 42 43
-4.093 0.732 1.538 28 37 42
-4.093 1.56 1.178 36 30 30
-4.093 0.952 1.492 37 48 54
-4.093 2.047 0.618 23 26 31
-4.093 2.68 -0.553 31 41 43
-4.093 2.145 -0.043 27 30 37
-4.093 2.218 -0.141 26 33 41
-4.093 1.658 1.462 31 29 34
-4.093 2.656 -0.54 27 37 39
-4.093 2.096 0.063 15 18 23
-4.093 2.339 -0.334 14 22 24
-4.093 0.757 1.555 75 84 89
-4.093 2.899 -0.595 74 84 86
-4.093 2.51 -0.478 31 41 33
-4.093 1.341 1.172 59 39 32
-4.093 2.534 -0.488 29 39 31
-4.093 0.708 1.519 22 29 35
-4.093 1.487 1.159 39 32 26
-4.093 1.317 1.172 75 55 48
-4.093 1.998 1.384 0 0 5
-4.093 1.828 1.65 51 54 59
-4.093 1.877 1.646 64 67 72
-4.093 2.924 -0.595 83 93 95
-4.093 2.875 -0.603 58 68 70
-4.093 0.83 1.573 7 21 24
-4.093 1.682 1.557 22 23 27
-4.093 0.976 1.393 36 43 51
-4.093 2.12 -0.012 24 27 32
-4.093 2.802 -0.567 49 58 63
-4.093 1.365 1.166 49 30 23
-4.093 2.851 -0.593 45 55 57
-4.093 2.388 -0.384 23 32 31
-4.093 2.729 -0.569 32 41 46
-4.093 1.804 1.646 49 52 57
-4.093 1.731 1.633 31 34 39
-4.093 1.122 1.136 28 16 16
-4.093 1.049 1.14 18 13 19
-4.093 2.412 -0.402 25 34 31
-4.093 2.242 -0.194 25 32 38
-4.093 1.925 1.607 47 50 55
-4.093 2.583 -0.519 44 54 53
-4.093 1.901 1.628 61 64 69
-4.093 0.635 1.497 22 25 30
-4.093 2.315 -0.306 33 41 44
-4.093 0.879 1.57 9 22 28
-4.093 1.268 1.157 75 52 46
-4.093 0.927 1.527 72 83 89
-4.093 2.753 -0.561 30 39 46
-4.093 1.755 1.642 45 50 54
-4.093 2.291 -0.278 36 44 47
-4.093 1.414 1.151 34 23 17
-4.093 1.974 1.486 4 7 12
-4.093 1.195 1.147 77 53 51
-4.093 2.705 -0.564 34 43 48
-4.093 1.609 1.2 39 34 38
-4.093 2.778 -0.559 43 52 59
-4.093 0.854 1.576 0 8 14
-4.093 0.903 1.555 57 68 74
-4.093 1.098 1.136 23 14 15
-4.093 1.39 1.155 38 25 17
-4.093 2.607 -0.519 42 52 51
-4.093 0.805 1.569 17 31 34
-4.093 1.463 1.164 34 27 21
-4.093 1.512 1.164 39 34 30
-4.093 2.485 -0.469 27 37 29
-4.093 1.292 1.168 81 58 52
-4.093 2.072 0.224 16 19 24
-4.093 1.439 1.159 33 24 17
-4.093 1.171 1.145 41 21 20
-4.093 1.95 1.566 35 38 43
-4.093 1.244 1.153 83 58 54
-4.093 1.706 1.614 18 21 26
-4.093 1.633 1.352 35 33 36
-4.093 2.193 -0.076 23 30 38
-4.093 2.558 -0.513 39 50 46
-4.093 1.219 1.151 88 63 59
-4.093 2.266 -0.239 26 33 39
-4.093 0.684 1.501 29 34 38
-4.093 0.781 1.563 69 80 84
-4.093 2.461 -0.457 21 31 23
-4.093 2.169 -0.043 24 31 39
-4.093 2.023 1.095 16 19 24
-4.093 1.536 1.174 38 33 30
-4.093 2.364 -0.357 16 24 26
-4.093 1.779 1.642 50 53 58
-4.093 1.585 1.18 41 37 38
-4.093 2.437 -0.431 21 30 25
-4.093 1.073 1.136 17 11 15
-4.093 0.659 1.492 20 23 28
-0.971 1.392 -2.276 190 173 166
-0.971 2.199 -1.985 114 103 99
-0.971 3.274 -1.691 78 82 85
-0.971 1.885 -2.069 86 81 78
-0.971 3.05 -1.711 101 97 98
-0.971 0.81 -2.636 146 139 131
-0.971 3.723 -1.723 111 108 103
-0.971 0.9 -2.576 91 84 76
-0.971 0.496 -2.92 95 84 78
-0.971 3.812 -1.733 149 141 139
-0.971 2.871 -1.734 105 96 99
-0.971 2.737 -1.788 120 120 120
-0.971 1.213 -2.357 191 177 174
-0.971 0.855 -2.596 118 111 103
-0.971 3.409 -1.701 96 87 90
-0.971 1.034 -2.497 95 88 82
-0.971 3.23 -1.701 69 74 77
-0.971 2.468 -1.887 90 86 85
-0.971 0.676 -2.751 159 150 143
-0.971 3.902 -1.733 173 163 162
-0.971 1.437 -2.271 204 187 180
-0.971 2.692 -1.805 134 136 135
-0.971 2.826 -1.751 138 134 135
-0.971 0.541 -2.889 111 100 94
-0.971 2.289 -1.955 112 102 100
-0.971 1.348 -2.289 201 184 177
-0.971 1.796 -2.106 96 92 91
-0.971 0.765 -2.673 176 167 160
-0.971 3.185 -1.706 57 63 63
-0.971 1.124 -2.408 88 77 75
-0.971 3.319 -1.691 84 83 88
-0.971 0.944 -2.552 94 87 79
-0.971 1.482 -2.257 175 158 151
-0.971 3.498 -1.701 175 165 164
-0.971 2.109 -1.987 158 147 143
-0.971 1.168 -2.385 161 147 146
-0.971 -0.265 -3.18 41 37 34
-0.971 1.706 -2.175 97 85 85
-0.971 0.183 -3.153 34 30 27
-0.971 2.02 -2.001 133 123 121
-0.971 2.647 -1.831 127 129 128
-0.971 2.333 -1.928 103 95 93
-0.971 2.513 -1.862 87 83 84
-0.971 2.916 -1.723 109 100 103
-0.971 0.407 -2.979 73 62 56
-0.971 1.93 -2.045 115 107 105
-0.971 3.543 -1.712 161 151 150
-0.971 1.975 -2.026 142 132 130
-0.971 2.378 -1.914 76 71 68
-0.971 3.454 -1.701 163 153 154
-0.971 0.003 -3.215 77 73 74
-0.971 3.095 -1.706 63 63 63
-0.971 0.72 -2.705 192 183 176
-0.971 0.227 -3.127 37 33 30
-0.971 3.678 -1.712 126 123 118
-0.971 3.006 -1.712 103 94 97
-0.971 1.751 -2.139 80 72 70
-0.971 -0.086 -3.22 74 70 71
-0.971 1.617 -2.205 176 162 159
-0.971 3.14 -1.706 20 22 21
-0.971 0.093 -3.191 45 41 42
-0.971 -0.131 -3.212 65 61 62
-0.971 -0.31 -3.172 44 41 36
-0.971 0.586 -2.836 85 74 68
-0.971 3.633 -1.712 167 162 158
-0.971 0.048 -3.203 50 46 47
-0.971 -0.176 -3.207 69 65 64
-0.971 3.364 -1.701 80 75 79
-0.971 0.451 -2.954 92 81 75
-0.971 2.244 -1.976 123 113 111
-0.971 0.989 -2.528 111 104 96
-0.971 2.423 -1.898 116 112 111
-0.971 0.272 -3.111 23 20 15
-0.971 1.258 -2.329 191 176 171
-0.971 2.065 -1.99 133 122 118
-0.971 -0.041 -3.22 103 99 100
-0.971 1.527 -2.247 193 178 173
-0.971 3.588 -1.712 165 157 154
-0.971 2.782 -1.766 115 113 114
-0.971 -0.221 -3.197 65 61 58
-0.971 1.303 -2.311 191 176 171
-0.971 0.317 -3.078 11 6 0
-0.971 1.661 -2.183 145 134 132
-0.971 3.857 -1.733 164 154 153
-0.971 0.362 -3.02 36 27 22
-0.971 2.558 -1.848 113 111 112
-0.971 1.841 -2.084 87 83 82
-0.971 3.767 -1.723 129 124 121
-0.971 1.079 -2.438 104 94 92
-0.971 0.631 -2.794 76 67 60
-0.971 2.602 -1.841 140 140 140
-0.971 1.572 -2.223 197 182 177
-0.971 2.154 -1.987 130 119 115
-0.971 2.961 -1.723 114 103 107
-0.971 0.138 -3.167 39 35 34
-5.811 0.989 -3.643 31 41 43
-5.811 2.737 -2.236 66 74 77
-5.811 0.676 -3.651 29 39 41
-5.811 3.23 -2.053 49 56 62
-5.811 1.841 -2.651 39 47 50
-5.811 1.258 -3.22 36 44 47
-5.811 0.183 -3.665 47 57 59
-5.811 0.631 -3.665 30 40 42
-5.811 2.289 -2.424 44 52 55
-5.811 0.362 -3.665 33 43 45
-5.811 2.423 -2.346 28 36 39
-5.811 2.513 -2.293 35 43 46
-5.811 3.095 -2.11 45 53 56
-5.811 0.586 -3.665 32 42 44
-5.811 1.706 -2.725 34 42 45
-5.811 2.782 -2.218 55 63 66
-5.811 0.855 -3.646 29 39 41
-5.811 3.185 -2.079 46 54 57
-5.811 0.541 -3.665 33 43 45
-5.811 2.109 -2.506 22 30 33
-5.811 0.048 -3.665 41 51 53
-5.811 -0.086 -3.671 39 49 51
-5.811 1.124 -3.548 34 42 45
-5.811 1.975 -2.576 36 44 47
-5.811 2.826 -2.194 36 44 47
-5.811 1.885 -2.625 40 48 51
-5.811 2.333 -2.396 38 46 49
-5.811 3.319 -2.033 43 51 54
-5.811 2.02 -2.551 26 34 37
-5.811 2.244 -2.454 44 52 55
-5.811 3.588 -1.957 92 92 92
-5.811 0.003 -3.665 39 49 51
-5.811 3.498 -1.983 88 89 91
-5.811 1.213 -3.345 34 42 45
-5.811 0.9 -3.646 33 43 45
-5.811 2.468 -2.322 31 39 42
-5.811 2.916 -2.164 32 40 43
-5.811 3.543 -1.978 72 73 75
-5.811 1.527 -2.883 53 61 64
-5.811 1.079 -3.607 34 42 45
-5.811 3.767 -1.915 82 78 75
-5.811 2.602 -2.275 47 55 58
-5.811 2.647 -2.264 50 58 61
-5.811 3.723 -1.93 102 98 95
-5.811 -0.221 -3.671 35 45 47
-5.811 0.227 -3.665 44 54 56
-5.811 3.05 -2.124 44 52 55
-5.811 3.409 -2.008 53 58 61
-5.811 1.168 -3.465 34 42 45
-5.811 0.72 -3.654 28 38 40
-5.811 3.14 -2.095 43 51 54
-5.811 0.765 -3.654 27 37 39
-5.811 2.871 -2.178 44 52 55
-5.811 1.93 -2.604 42 50 53
-5.811 1.482 -2.908 46 54 57
-5.811 1.348 -3.038 39 47 50
-5.811 3.812 -1.905 125 120 116
-5.811 -0.31 -3.671 34 44 46
-5.811 2.692 -2.247 59 67 70
-5.811 3.006 -2.129 31 39 42
-5.811 0.317 -3.665 37 47 49
-5.811 0.272 -3.665 40 50 52
-5.811 2.378 -2.374 31 39 42
-5.811 3.274 -2.033 51 58 64
-5.811 1.392 -2.97 40 48 51
-5.811 0.944 -3.643 34 44 46
-5.811 1.303 -3.118 37 45 48
-5.811 3.633 -1.946 84 83 81
-5.811 2.961 -2.14 24 32 35
-5.811 2.065 -2.523 20 28 31
-5.811 3.454 -1.998 84 88 91
-5.811 -0.176 -3.671 38 48 50
-5.811 1.437 -2.942 43 51 54
-5.811 3.364 -2.019 35 40 44
-5.811 -0.265 -3.671 32 42 44
-5.811 0.138 -3.665 47 57 59
-5.811 1.572 -2.847 60 68 71
-5.811 1.661 -2.757 52 60 63
-5.811 1.034 -3.627 28 38 40
-5.811 0.407 -3.665 34 44 46
-5.811 1.751 -2.684 20 28 31
-5.811 -0.131 -3.671 38 48 50
-5.811 1.796 -2.673 42 50 53
-5.811 3.678 -1.941 106 105 101
-5.811 -0.041 -3.671 43 53 55
-5.811 3.902 -1.905 95 90 86
-5.811 2.558 -2.282 43 51 54
-5.811 0.093 -3.665 45 55 57
-5.811 3.857 -1.905 121 116 112
-5.811 0.81 -3.654 27 37 39
-5.811 2.154 -2.487 31 39 42
-5.811 2.199 -2.477 38 46 49
-5.811 1.617 -2.804 62 70 73
-5.811 0.496 -3.665 34 44 46
-5.811 0.451 -3.665 34 44 46
-6.438 1.975 -3.115 48 56 59
-6.438 2.423 -2.842 71 79 82
-6.438 1.796 -3.328 58 66 69
-6.438 2.468 -2.821 85 93 96
-6.438 3.588 -2.607 36 45 50
-6.438 0.272 -3.73 44 53 58
-6.438 0.183 -3.72 38 47 52
-6.438 0.676 -3.776 47 61 64
-6.438 0.586 -3.764 40 54 57
-6.438 3.006 -2.679 69 79 81
-6.438 2.154 -2.975 64 72 75
-6.438 1.482 -3.809 33 47 50
-6.438 1.885 -3.211 62 70 73
-6.438 1.034 -3.827 47 60 66
-6.438 1.348 -3.907 34 48 51
-6.438 1.303 -3.883 37 52 57
-6.438 0.631 -3.776 44 58 61
-6.438 3.364 -2.609 57 66 71
-6.438 1.661 -3.531 62 73 75
-6.438 3.319 -2.609 58 67 72
-6.438 0.855 -3.796 45 59 62
-6.438 3.454 -2.604 63 72 77
-6.438 3.723 -2.614 63 72 77
-6.438 2.513 -2.815 73 83 85
-6.438 1.751 -3.437 59 69 70
-6.438 3.678 -2.607 54 63 68
-6.438 0.541 -3.764 39 53 56
-6.438 3.633 -2.607 49 58 63
-6.438 0.765 -3.782 43 57 60
-6.438 2.333 -2.877 69 77 80
-6.438 2.826 -2.73 38 48 50
-6.438 1.392 -3.886 32 46 49
-6.438 1.437 -3.866 33 47 50
-6.438 -0.131 -3.7 53 62 67
-6.438 3.498 -2.604 61 70 75
-6.438 2.647 -2.789 59 69 71
-6.438 2.871 -2.721 70 80 82
-6.438 1.706 -3.503 62 72 73
-6.438 3.767 -2.614 55 64 69
-6.438 -0.176 -3.7 50 59 64
-6.438 -0.265 -3.7 43 52 57
-6.438 1.617 -3.581 56 67 69
-6.438 1.93 -3.164 51 59 62
-6.438 1.258 -3.878 41 56 61
-6.438 3.05 -2.674 67 77 79
-6.438 1.527 -3.733 38 49 51
-6.438 -0.086 -3.704 52 61 66
-6.438 3.14 -2.663 71 81 83
-6.438 2.199 -2.956 76 84 87
-6.438 0.496 -3.754 41 55 58
-6.438 0.451 -3.754 44 58 61
-6.438 2.692 -2.778 45 55 57
-6.438 3.23 -2.616 56 65 70
-6.438 0.093 -3.717 42 51 56
-6.438 1.841 -3.259 64 72 75
-6.438 0.81 -3.796 43 57 60
-6.438 1.572 -3.652 46 57 59
-6.438 0.003 -3.717 50 59 64
-6.438 -0.221 -3.7 45 54 59
-6.438 0.227 -3.72 41 50 55
-6.438 3.812 -2.614 37 46 51
-6.438 2.558 -2.799 67 77 79
-6.438 2.02 -3.077 53 61 64
-6.438 2.289 -2.907 71 79 82
-6.438 0.048 -3.717 47 56 61
-6.438 0.72 -3.782 44 58 61
-6.438 3.185 -2.646 69 79 81
-6.438 2.782 -2.752 29 39 41
-6.438 0.138 -3.717 39 48 53
-6.438 2.244 -2.932 76 84 87
-6.438 2.109 -3.015 51 59 62
-6.438 -0.041 -3.704 49 58 63
-6.438 3.095 -2.663 69 79 81
-6.438 0.407 -3.745 46 60 63
-6.438 1.079 -3.849 43 58 65
-6.438 3.857 -2.614 37 46 51
-6.438 2.378 -2.857 66 74 77
-6.438 2.737 -2.762 29 39 41
-6.438 0.989 -3.804 49 63 66
-6.438 2.065 -3.051 55 63 66
-6.438 2.916 -2.711 74 84 86
-6.438 3.409 -2.609 59 68 73
-6.438 0.944 -3.804 50 64 67
-6.438 -0.31 -3.701 44 53 58
-6.438 0.362 -3.748 49 60 64
-6.438 3.902 -2.614 32 41 46
-6.438 0.9 -3.804 48 62 65
-6.438 3.543 -2.596 55 64 69
-6.438 2.602 -2.799 64 74 76
-6.438 1.168 -3.854 44 59 66
-6.438 3.274 -2.609 59 68 73
-6.438 2.961 -2.69 75 85 87
-6.438 1.213 -3.868 43 58 65
-6.438 1.124 -3.854 42 59 66
-6.438 0.317 -3.735 47 56 61
-1.151 0.81 -2.439 128 124 115
-1.151 0.676 -2.526 181 170 164
-1.151 2.02 -1.898 136 126 125
-1.151 3.633 -1.647 124 119 115
-1.151 2.916 -1.648 138 129 134
-1.151 2.109 -1.886 140 126 125
-1.151 0.093 -2.945 15 10 7
-1.151 1.258 -2.194 197 184 176
-1.151 3.006 -1.637 155 146 151
-1.151 3.409 -1.626 53 51 56
-1.151 2.378 -1.817 61 60 58
-1.151 -0.265 -3.118 74 65 60
-1.151 3.767 -1.658 143 138 134
-1.151 3.543 -1.637 155 147 145
-1.151 3.05 -1.626 187 181 185
-1.151 1.437 -2.149 171 158 152
-1.151 0.496 -2.65 108 93 88
-1.151 1.168 -2.247 125 114 108
-1.151 1.885 -1.946 114 113 111
-1.151 1.975 -1.907 107 99 97
-1.151 0.765 -2.467 138 131 123
-1.151 0.272 -2.783 151 140 136
-1.151 3.498 -1.637 129 120 123
-1.151 2.065 -1.89 152 141 139
-1.151 -0.041 -3.064 61 57 56
-1.151 1.527 -2.117 137 128 123
-1.151 1.079 -2.287 171 164 156
-1.151 -0.221 -3.127 77 69 66
-1.151 0.003 -3.047 46 42 41
-1.151 3.185 -1.626 59 64 67
-1.151 2.244 -1.873 109 99 98
-1.151 3.812 -1.658 128 120 117
-1.151 2.871 -1.664 96 90 94
-1.151 3.23 -1.615 71 80 87
-1.151 0.048 -2.995 22 18 17
-1.151 2.961 -1.637 150 141 146
-1.151 0.407 -2.702 162 144 140
-1.151 3.095 -1.626 123 121 124
-1.151 3.723 -1.647 124 121 116
-1.151 3.678 -1.647 121 118 113
-1.151 1.213 -2.223 176 163 157
-1.151 1.661 -2.045 100 96 95
-1.151 2.602 -1.766 69 73 74
-1.151 0.227 -2.815 138 129 124
-1.151 3.902 -1.658 152 140 140
-1.151 1.348 -2.164 191 178 170
-1.151 1.124 -2.268 155 144 138
-1.151 1.841 -1.971 80 80 80
-1.151 2.513 -1.79 77 78 80
-1.151 1.303 -2.175 173 160 152
-1.151 2.782 -1.691 52 53 55
-1.151 1.392 -2.16 199 186 178
-1.151 3.319 -1.626 61 66 72
-1.151 -0.176 -3.11 68 63 60
-1.151 0.944 -2.366 88 85 76
-1.151 0.989 -2.351 133 130 121
-1.151 3.274 -1.615 71 80 87
-1.151 0.855 -2.409 120 116 107
-1.151 2.826 -1.664 72 70 73
-1.151 1.482 -2.139 161 150 144
-1.151 1.93 -1.93 118 114 113
-1.151 0.317 -2.762 155 142 136
-1.151 0.9 -2.384 89 86 77
-1.151 0.586 -2.591 166 153 147
-1.151 -0.086 -3.088 81 77 76
-1.151 1.751 -2.001 109 107 108
-1.151 3.14 -1.626 29 29 31
-1.151 2.737 -1.702 58 62 63
-1.151 1.796 -1.982 89 89 91
-1.151 1.617 -2.066 148 143 140
-1.151 3.588 -1.647 145 140 136
-1.151 2.423 -1.805 90 90 90
-1.151 2.289 -1.858 115 107 105
-1.151 1.034 -2.32 155 152 143
-1.151 2.199 -1.886 128 117 115
-1.151 2.468 -1.8 102 103 105
-1.151 0.72 -2.502 147 138 131
-1.151 2.154 -1.886 160 146 145
-1.151 0.138 -2.899 29 24 21
-1.151 0.362 -2.724 167 152 147
-1.151 3.454 -1.637 102 96 100
-1.151 2.647 -1.745 70 76 76
-1.151 2.558 -1.777 59 63 64
-1.151 2.333 -1.842 77 73 72
-1.151 0.541 -2.633 140 125 120
-1.151 -0.31 -3.129 68 57 53
-1.151 1.572 -2.096 145 137 134
-1.151 1.706 -2.026 78 74 75
-1.151 3.364 -1.626 48 49 54
-1.151 0.631 -2.564 184 173 167
-1.151 0.183 -2.852 83 75 72
-1.151 0.451 -2.676 117 99 95
-1.151 2.692 -1.719 79 85 85
-1.151 3.857 -1.658 134 124 123
-1.151 -0.131 -3.104 77 72 69
-3.63 1 1.005 14 19 23
-3.63 1.901 1.839 16 17 19
-3.63 1.804 1.811 14 15 17
-3.63 0.684 1.189 10 15 19
-3.63 0.635 1.212 10 15 19
-3.63 1.998 1.879 19 20 22
-3.63 1.609 1.704 51 36 39
-3.63 1.755 1.786 15 21 17
-3.63 2.12 1.898 32 33 35
-3.63 2.485 1.888 19 28 33
-3.63 2.607 -0.703 43 52 57
-3.63 2.072 1.892 25 26 28
-3.63 2.047 1.888 22 23 25
-3.63 2.145 1.907 33 34 36
-3.63 0.903 1.056 15 20 24
-3.63 2.339 1.91 14 15 19
-3.63 2.534 1.858 36 47 51
-3.63 2.632 -0.526 31 40 45
-3.63 1.512 1.628 105 57 47
-3.63 1.341 1.166 11 9 12
-3.63 1.414 1.398 25 12 6
-3.63 1.049 0.997 13 14 19
-3.63 2.412 1.91 13 16 23
-3.63 1.098 0.978 15 10 16
-3.63 1.925 1.855 16 17 19
-3.63 1.731 1.772 21 30 27
-3.63 1.171 0.997 16 14 17
-3.63 2.193 1.922 35 41 41
-3.63 1.122 0.977 16 11 17
-3.63 1.39 1.298 6 0 0
-3.63 0.757 1.155 10 15 19
-3.63 1.244 1.06 41 45 46
-3.63 2.656 -0.583 30 39 44
-3.63 1.195 1.023 13 13 15
-3.63 2.68 -0.608 33 42 47
-3.63 1.658 1.744 20 25 29
-3.63 1.487 1.592 127 80 70
-3.63 1.706 1.76 20 30 29
-3.63 2.437 1.905 12 17 23
-3.63 0.854 1.097 13 18 22
-3.63 1.463 1.541 117 80 71
-3.63 2.802 -0.645 39 48 53
-3.63 2.169 1.917 35 39 40
-3.63 0.83 1.12 12 17 21
-3.63 2.705 -0.621 37 46 51
-3.63 2.51 1.879 28 39 43
-3.63 1.268 1.078 35 39 40
-3.63 2.558 1.827 46 55 60
-3.63 2.899 -0.657 33 42 47
-3.63 1.633 1.725 30 28 33
-3.63 2.729 -0.625 43 52 57
-3.63 1.073 0.99 13 10 17
-3.63 2.778 -0.626 35 44 49
-3.63 1.219 1.041 34 35 37
-3.63 1.56 1.665 89 50 45
-3.63 1.877 1.832 15 16 18
-3.63 0.781 1.145 10 15 19
-3.63 2.388 1.912 16 17 22
-3.63 1.828 1.815 14 15 17
-3.63 2.096 1.892 29 30 32
-3.63 0.659 1.199 10 15 19
-3.63 1.682 1.754 17 25 27
-3.63 2.851 -0.638 43 52 57
-3.63 0.976 1.009 14 19 23
-3.63 1.974 1.872 19 20 22
-3.63 2.826 -0.648 33 42 47
-3.63 2.315 1.91 18 19 23
-3.63 2.266 1.91 32 33 37
-3.63 0.708 1.174 10 15 19
-3.63 0.805 1.132 11 16 20
-3.63 1.292 1.102 32 33 35
-3.63 2.364 1.912 16 17 22
-3.63 1.365 1.217 10 6 7
-3.63 2.875 -0.642 47 56 61
-3.63 0.732 1.168 10 15 19
-3.63 2.218 1.917 37 41 42
-3.63 1.025 1 13 16 21
-3.63 1.146 0.982 17 12 16
-3.63 1.439 1.482 72 47 40
-3.63 2.753 -0.618 39 48 53
-3.63 0.879 1.077 14 19 23
-3.63 2.242 1.912 35 39 40
-3.63 1.536 1.642 91 44 36
-3.63 1.779 1.799 12 16 15
-3.63 1.585 1.679 77 49 48
-3.63 0.952 1.023 14 19 23
-3.63 0.927 1.035 15 20 24
-3.63 1.852 1.822 15 16 18
-3.63 2.461 1.896 12 19 25
-3.63 2.924 -0.666 52 61 66
-3.63 1.95 1.863 16 17 19
-3.63 2.023 1.884 20 21 23
-3.63 2.583 1.909 51 60 65
-3.63 2.291 1.906 25 26 30
-3.63 1.317 1.132 21 22 24
-2.809 1.93 -1.551 62 59 52
-2.809 1.482 -1.637 75 71 70
-2.809 -0.221 -2.119 85 81 80
-2.809 0.586 -2.001 44 42 43
-2.809 3.678 -1.249 82 82 82
-2.809 3.006 -1.225 69 73 72
-2.809 2.02 -1.52 81 76 70
-2.809 0.451 -2.077 83 77 77
-2.809 1.168 -1.764 81 82 76
-2.809 2.558 -1.335 76 76 76
-2.809 2.109 -1.482 113 108 104
-2.809 3.409 -1.194 94 94 94
-2.809 2.602 -1.324 62 64 63
-2.809 1.841 -1.567 84 84 76
-2.809 0.093 -2.098 86 77 78
-2.809 3.274 -1.201 80 80 80
-2.809 0.989 -1.808 139 136 127
-2.809 1.034 -1.803 113 110 101
-2.809 -0.176 -2.119 70 66 65
-2.809 3.05 -1.21 72 74 73
-2.809 0.541 -2.036 55 53 54
-2.809 2.692 -1.304 50 54 53
-2.809 1.527 -1.626 80 76 77
-2.809 0.048 -2.109 113 107 107
-2.809 3.14 -1.198 71 71 71
-2.809 2.737 -1.298 48 52 51
-2.809 2.199 -1.456 93 89 86
-2.809 0.765 -1.877 55 57 54
-2.809 1.124 -1.779 76 77 71
-2.809 0.227 -2.098 82 72 73
-2.809 1.796 -1.578 77 74 69
-2.809 3.498 -1.208 60 60 60
-2.809 1.751 -1.605 76 72 71
-2.809 0.317 -2.098 86 76 77
-2.809 1.213 -1.748 83 84 78
-2.809 3.723 -1.278 84 84 84
-2.809 1.885 -1.556 81 78 71
-2.809 1.348 -1.68 89 88 84
-2.809 1.392 -1.664 81 80 76
-2.809 0.855 -1.841 77 78 72
-2.809 3.633 -1.234 82 82 82
-2.809 0.407 -2.096 86 77 78
-2.809 -0.041 -2.109 86 80 80
-2.809 0.272 -2.084 59 49 50
-2.809 2.871 -1.249 45 51 49
-2.809 3.857 -1.32 101 101 101
-2.809 2.961 -1.231 63 67 66
-2.809 3.095 -1.21 83 85 84
-2.809 3.454 -1.194 76 76 76
-2.809 2.154 -1.471 101 97 94
-2.809 1.661 -1.61 95 91 92
-2.809 2.826 -1.265 66 72 70
-2.809 3.319 -1.201 95 95 95
-2.809 3.364 -1.201 104 104 104
-2.809 2.378 -1.407 71 73 70
-2.809 2.065 -1.504 56 51 47
-2.809 2.513 -1.345 75 77 76
-2.809 3.23 -1.201 72 72 72
-2.809 -0.31 -2.125 95 94 92
-2.809 3.543 -1.208 47 47 47
-2.809 2.782 -1.282 62 68 66
-2.809 0.9 -1.834 86 86 78
-2.809 0.183 -2.098 104 94 95
-2.809 2.916 -1.247 42 48 46
-2.809 0.496 -2.056 58 54 53
-2.809 2.468 -1.376 60 65 61
-2.809 1.572 -1.61 59 55 56
-2.809 -0.265 -2.125 96 92 91
-2.809 0.72 -1.903 68 70 69
-2.809 2.333 -1.417 73 73 71
-2.809 0.362 -2.096 78 69 70
-2.809 3.902 -1.32 89 89 89
-2.809 3.767 -1.29 99 99 99
-2.809 -0.131 -2.119 83 79 78
-2.809 1.258 -1.722 88 87 83
-2.809 1.706 -1.61 82 76 78
-2.809 0.944 -1.823 120 120 112
-2.809 2.647 -1.32 57 59 58
-2.809 1.303 -1.706 98 97 93
-2.809 2.244 -1.44 69 68 64
-2.809 0.631 -1.971 50 50 52
-2.809 3.588 -1.219 50 50 50
-2.809 1.079 -1.79 95 95 87
-2.809 2.423 -1.392 62 67 63
-2.809 2.289 -1.433 49 48 44
-2.809 -0.086 -2.109 106 100 100
-2.809 0.138 -2.098 79 70 71
-2.809 3.812 -1.304 104 104 104
-2.809 1.975 -1.535 72 67 61
-2.809 1.617 -1.61 85 81 82
-2.809 0.676 -1.941 56 56 58
-2.809 3.185 -1.198 50 50 50
-2.809 0.003 -2.109 107 101 101
-2.809 0.81 -1.851 66 67 62
-2.809 1.437 -1.648 74 70 69
-1.609 1 0.544 14 17 24
-1.609 1.341 0.307 35 36 38
-1.609 1.073 0.477 13 13 21
-1.609 2.51 -0.652 107 105 110
-1.609 2.656 -0.656 96 95 101
-1.609 1.998 -0.381 57 70 61
-1.609 0.903 0.628 10 17 23
-1.609 2.096 -0.602 85 93 78
-1.609 1.56 0.271 79 86 94
-1.609 2.12 -0.6 69 75 63
-1.609 2.388 -0.638 120 115 119
-1.609 1.585 0.261 79 86 94
-1.609 2.461 -0.65 82 77 83
-1.609 1.852 0.19 37 47 57
-1.609 2.729 -0.659 106 104 107
-1.609 1.025 0.516 12 12 20
-1.609 1.268 0.34 20 21 25
-1.609 1.828 0.197 50 60 69
-1.609 2.826 -0.688 69 70 74
-1.609 2.023 -0.52 65 77 65
-1.609 1.122 0.43 11 11 19
-1.609 2.047 -0.578 85 96 82
-1.609 1.536 0.278 97 106 113
-1.609 0.659 0.845 18 25 31
-1.609 2.778 -0.67 69 68 66
-1.609 2.899 -0.709 121 132 152
-1.609 0.805 0.724 8 15 21
-1.609 1.146 0.409 14 15 20
-1.609 1.463 0.304 25 38 44
-1.609 1.39 0.313 30 41 45
-1.609 1.487 0.297 33 44 50
-1.609 1.731 0.234 48 57 64
-1.609 0.952 0.59 11 18 24
-1.609 0.732 0.786 17 24 30
-1.609 1.098 0.452 13 13 21
-1.609 1.365 0.307 36 41 44
-1.609 0.879 0.645 9 16 22
-1.609 1.974 -0.168 69 84 81
-1.609 0.757 0.767 11 18 24
-1.609 1.706 0.234 51 60 67
-1.609 2.193 -0.616 40 51 45
-1.609 1.317 0.317 40 41 43
-1.609 2.607 -0.659 97 92 98
-1.609 2.705 -0.656 105 103 108
-1.609 1.219 0.359 15 16 20
-1.609 2.802 -0.678 56 56 56
-1.609 2.485 -0.652 106 104 109
-1.609 2.266 -0.622 72 78 74
-1.609 2.145 -0.603 49 57 46
-1.609 0.976 0.568 13 18 24
-1.609 1.292 0.324 29 30 32
-1.609 1.682 0.239 56 63 71
-1.609 0.854 0.667 9 16 22
-1.609 2.315 -0.628 78 78 78
-1.609 2.412 -0.644 114 109 113
-1.609 2.534 -0.656 104 102 107
-1.609 1.171 0.391 20 21 26
-1.609 1.658 0.242 49 56 64
-1.609 1.779 0.208 66 75 80
-1.609 1.049 0.499 11 11 19
-1.609 1.804 0.201 55 64 71
-1.609 2.583 -0.659 68 62 66
-1.609 2.242 -0.619 59 68 63
-1.609 2.632 -0.656 112 109 116
-1.609 0.635 0.861 11 18 24
-1.609 1.95 0.038 42 56 57
-1.609 2.072 -0.596 92 100 85
-1.609 1.633 0.245 58 65 73
-1.609 2.169 -0.61 44 55 47
-1.609 1.244 0.351 20 21 25
-1.609 1.609 0.253 76 83 91
-1.609 2.924 -0.711 142 154 176
-1.609 2.437 -0.647 96 91 95
-1.609 1.414 0.313 32 47 52
-1.609 0.708 0.803 25 32 38
-1.609 1.877 0.189 25 38 47
-1.609 2.291 -0.624 101 103 100
-1.609 2.68 -0.656 98 97 103
-1.609 0.684 0.826 25 32 38
-1.609 1.195 0.373 22 23 27
-1.609 2.875 -0.704 94 103 118
-1.609 2.558 -0.656 85 80 84
-1.609 0.83 0.698 8 15 21
-1.609 1.439 0.309 35 48 54
-1.609 1.512 0.288 75 84 91
-1.609 2.851 -0.697 97 104 114
-1.609 1.755 0.225 61 70 77
-1.609 1.901 0.172 39 52 61
-1.609 1.925 0.138 30 43 49
-1.609 2.364 -0.635 122 120 123
-1.609 0.781 0.747 9 16 22
-1.609 2.753 -0.664 77 75 76
-1.609 2.218 -0.616 55 64 59
-1.609 0.927 0.608 10 17 23
-1.609 2.339 -0.63 98 96 97
-6.124 3.319 -2.282 69 79 80
-6.124 2.244 -2.649 54 62 65
-6.124 0.496 -3.707 32 42 44
-6.124 -0.31 -3.748 29 39 41
-6.124 0.272 -3.748 35 45 47
-6.124 -0.086 -3.748 28 38 40
-6.124 2.602 -2.495 59 67 70
-6.124 0.989 -3.745 39 49 51
-6.124 3.857 -2.223 48 58 59
-6.124 1.168 -3.728 40 48 51
-6.124 2.513 -2.506 35 43 46
-6.124 1.617 -2.976 52 60 63
-6.124 -0.041 -3.748 34 44 46
-6.124 1.527 -3.066 63 71 74
-6.124 1.348 -3.465 48 56 59
-6.124 3.14 -2.316 53 61 64
-6.124 0.72 -3.722 35 45 47
-6.124 -0.176 -3.748 27 37 39
-6.124 3.812 -2.223 52 62 63
-6.124 2.916 -2.374 63 71 74
-6.124 0.541 -3.717 33 43 45
-6.124 1.885 -2.831 66 74 77
-6.124 1.572 -3.011 58 66 69
-6.124 2.961 -2.362 69 77 80
-6.124 0.003 -3.748 35 45 47
-6.124 2.558 -2.495 54 62 65
-6.124 0.586 -3.717 33 43 45
-6.124 0.944 -3.745 39 49 51
-6.124 3.454 -2.264 65 75 76
-6.124 0.093 -3.748 37 47 49
-6.124 3.678 -2.24 64 74 75
-6.124 3.902 -2.223 54 64 65
-6.124 3.767 -2.229 57 67 68
-6.124 1.975 -2.766 76 84 87
-6.124 1.124 -3.74 38 46 49
-6.124 -0.221 -3.748 29 39 41
-6.124 3.498 -2.264 66 76 77
-6.124 2.423 -2.54 26 34 37
-6.124 2.02 -2.745 76 84 87
-6.124 0.227 -3.748 36 46 48
-6.124 0.676 -3.722 34 44 46
-6.124 0.855 -3.745 39 49 51
-6.124 0.631 -3.717 34 44 46
-6.124 2.065 -2.728 72 80 83
-6.124 3.723 -2.229 57 67 68
-6.124 2.468 -2.515 31 39 42
-6.124 -0.131 -3.748 26 36 38
-6.124 0.362 -3.717 31 41 43
-6.124 1.796 -2.883 58 66 69
-6.124 0.451 -3.707 31 41 43
-6.124 2.692 -2.472 47 55 58
-6.124 1.93 -2.798 72 80 83
-6.124 1.303 -3.56 43 51 54
-6.124 3.185 -2.3 58 66 69
-6.124 1.706 -2.953 51 59 62
-6.124 2.782 -2.426 70 78 81
-6.124 2.737 -2.454 64 72 75
-6.124 2.289 -2.627 39 47 50
-6.124 1.437 -3.236 65 73 76
-6.124 0.317 -3.734 34 44 46
-6.124 2.333 -2.599 29 37 40
-6.124 3.633 -2.24 69 79 80
-6.124 1.661 -2.952 48 56 59
-6.124 1.482 -3.147 65 73 76
-6.124 0.9 -3.745 39 49 51
-6.124 2.154 -2.691 74 82 85
-6.124 2.109 -2.706 69 77 80
-6.124 3.364 -2.275 65 75 76
-6.124 3.006 -2.356 65 73 76
-6.124 3.095 -2.318 49 57 60
-6.124 3.409 -2.275 63 73 74
-6.124 1.079 -3.745 39 47 50
-6.124 3.274 -2.282 67 77 78
-6.124 1.258 -3.631 44 52 55
-6.124 2.199 -2.67 68 76 79
-6.124 0.765 -3.731 36 46 48
-6.124 2.647 -2.483 46 54 57
-6.124 2.378 -2.565 25 33 36
-6.124 1.392 -3.352 55 63 66
-6.124 0.183 -3.748 37 47 49
-6.124 0.407 -3.707 31 41 43
-6.124 1.213 -3.685 44 52 55
-6.124 0.048 -3.748 36 46 48
-6.124 2.871 -2.396 57 65 68
-6.124 3.23 -2.287 62 72 73
-6.124 1.751 -2.938 55 63 66
-6.124 3.588 -2.253 64 74 75
-6.124 2.826 -2.415 61 69 72
-6.124 1.841 -2.857 61 69 72
-6.124 0.138 -3.748 38 48 50
-6.124 3.05 -2.329 54 62 65
-6.124 0.81 -3.731 37 47 49
-6.124 3.543 -2.253 64 74 75
-6.124 -0.265 -3.748 28 38 40
-6.124 1.034 -3.745 39 49 51
-7.11 3.633 -3.063 50 58 61
-7.11 1.706 -3.868 19 27 30
-7.11 0.855 -3.906 26 29 34
-7.11 2.558 -3.407 45 55 57
-7.11 3.857 -3.069 45 53 56
-7.11 0.003 -3.695 30 41 43
-7.11 3.006 -3.346 44 54 56
-7.11 2.289 -3.471 40 50 52
-7.11 2.154 -3.526 42 52 54
-7.11 1.034 -3.936 28 33 37
-7.11 3.678 -3.063 54 62 65
-7.11 2.513 -3.402 32 42 44
-7.11 2.826 -3.414 55 65 67
-7.11 0.541 -3.839 27 30 35
-7.11 1.93 -3.627 41 51 53
-7.11 0.496 -3.829 29 32 37
-7.11 2.333 -3.455 33 43 45
-7.11 2.378 -3.432 35 45 47
-7.11 3.902 -3.069 46 54 57
-7.11 0.362 -3.804 38 43 47
-7.11 0.317 -3.776 40 50 52
-7.11 2.737 -3.424 54 64 66
-7.11 0.451 -3.825 32 35 40
-7.11 2.916 -3.393 42 52 54
-7.11 2.199 -3.517 48 58 60
-7.11 1.079 -3.96 23 31 34
-7.11 1.168 -3.97 22 30 33
-7.11 3.319 -3.156 53 61 64
-7.11 3.095 -3.3 42 52 54
-7.11 0.048 -3.714 29 40 42
-7.11 1.258 -3.971 24 32 35
-7.11 3.364 -3.149 50 58 61
-7.11 2.109 -3.547 53 63 65
-7.11 3.723 -3.059 56 64 67
-7.11 2.871 -3.408 45 55 57
-7.11 1.975 -3.602 26 36 38
-7.11 0.765 -3.886 28 31 36
-7.11 3.274 -3.167 50 58 61
-7.11 3.409 -3.132 45 53 56
-7.11 0.093 -3.723 27 38 40
-7.11 0.138 -3.728 26 37 39
-7.11 1.751 -3.806 57 65 68
-7.11 3.812 -3.069 48 56 59
-7.11 2.02 -3.577 21 31 33
-7.11 0.944 -3.921 30 33 38
-7.11 0.72 -3.881 31 34 39
-7.11 0.272 -3.764 36 47 49
-7.11 0.81 -3.9 26 29 34
-7.11 2.244 -3.494 48 58 60
-7.11 1.572 -3.966 13 21 24
-7.11 2.961 -3.363 33 43 45
-7.11 -0.131 -3.665 35 46 48
-7.11 3.05 -3.314 49 59 61
-7.11 1.885 -3.658 51 61 63
-7.11 1.213 -3.97 23 31 34
-7.11 0.631 -3.864 27 30 35
-7.11 2.602 -3.417 53 63 65
-7.11 0.676 -3.874 28 31 36
-7.11 0.586 -3.853 26 29 34
-7.11 3.767 -3.069 53 61 64
-7.11 2.782 -3.424 57 67 69
-7.11 -0.221 -3.634 29 40 42
-7.11 1.527 -3.977 20 28 31
-7.11 0.183 -3.745 27 38 40
-7.11 1.437 -3.998 18 26 29
-7.11 2.423 -3.414 38 48 50
-7.11 0.407 -3.825 36 39 44
-7.11 1.303 -3.982 24 32 35
-7.11 2.647 -3.422 50 60 62
-7.11 2.692 -3.43 49 59 61
-7.11 1.348 -3.988 22 30 33
-7.11 1.661 -3.915 16 24 27
-7.11 -0.176 -3.646 33 44 46
-7.11 0.989 -3.926 30 33 38
-7.11 3.23 -3.203 45 53 56
-7.11 -0.086 -3.677 32 43 45
-7.11 -0.265 -3.634 36 47 49
-7.11 0.227 -3.754 31 42 44
-7.11 1.392 -3.988 20 28 31
-7.11 -0.31 -3.629 40 51 53
-7.11 3.185 -3.247 37 47 49
-7.11 -0.041 -3.682 35 46 48
-7.11 2.065 -3.564 35 45 47
-7.11 1.482 -3.998 20 28 31
-7.11 3.14 -3.282 43 53 55
-7.11 2.468 -3.406 38 48 50
-7.11 1.124 -3.975 22 30 33
-7.11 3.454 -3.108 40 48 51
-7.11 3.543 -3.089 27 35 38
-7.11 1.796 -3.725 47 57 59
-7.11 3.588 -3.081 48 56 59
-7.11 1.617 -3.944 18 26 29
-7.11 1.841 -3.676 51 61 63
-7.11 0.9 -3.921 28 31 36
-7.11 3.498 -3.099 33 41 44
-0.611 1 0.492 36 48 62
-0.611 2.437 -0.704 179 170 171
-0.611 1.755 -0.127 59 67 69
-0.611 1.219 0.192 44 48 57
-0.611 2.485 -0.704 189 181 179
-0.611 2.339 -0.699 184 175 176
-0.611 2.096 -0.671 97 102 79
-0.611 2.607 -0.721 200 191 194
-0.611 2.68 -0.718 224 209 206
-0.611 2.753 -0.721 204 201 208
-0.611 2.534 -0.711 200 195 192
-0.611 1.731 -0.121 82 90 93
-0.611 2.705 -0.718 196 182 181
-0.611 0.684 1.03 30 37 43
-0.611 0.635 1.083 32 39 45
-0.611 2.51 -0.711 207 199 196
-0.611 1.536 0.013 35 38 43
-0.611 1.877 -0.154 100 107 113
-0.611 0.708 0.999 30 37 45
-0.611 2.072 -0.647 101 108 90
-0.611 0.879 0.705 26 33 43
-0.611 2.802 -0.737 176 187 205
-0.611 0.781 0.897 34 41 49
-0.611 0.854 0.754 31 38 48
-0.611 1.609 -0.048 39 44 48
-0.611 1.682 -0.103 41 49 52
-0.611 2.412 -0.704 202 193 194
-0.611 1.998 -0.292 102 106 109
-0.611 2.851 -0.747 146 173 203
-0.611 1.244 0.177 45 48 55
-0.611 2.875 -0.756 133 166 201
-0.611 1.633 -0.066 27 35 38
-0.611 1.317 0.127 51 52 57
-0.611 2.193 -0.688 200 193 183
-0.611 0.952 0.595 20 26 38
-0.611 0.976 0.549 22 30 43
-0.611 1.341 0.115 58 59 63
-0.611 2.364 -0.699 160 151 152
-0.611 1.804 -0.138 54 65 61
-0.611 1.852 -0.157 115 123 126
-0.611 1.365 0.103 66 67 71
-0.611 0.83 0.8 33 40 50
-0.611 1.073 0.375 36 48 60
-0.611 2.218 -0.691 219 212 204
-0.611 1.439 0.071 73 74 79
-0.611 2.924 -0.763 124 162 201
-0.611 2.291 -0.692 198 190 188
-0.611 1.39 0.091 61 62 67
-0.611 0.732 0.971 31 38 46
-0.611 1.925 -0.149 101 108 118
-0.611 2.778 -0.727 197 201 213
-0.611 0.927 0.625 18 24 36
-0.611 2.388 -0.699 185 176 177
-0.611 1.487 0.049 73 76 81
-0.611 2.047 -0.603 99 105 93
-0.611 0.757 0.936 33 40 48
-0.611 1.025 0.45 41 55 68
-0.611 1.122 0.293 38 48 58
-0.611 1.658 -0.088 21 29 32
-0.611 2.558 -0.718 181 176 180
-0.611 2.826 -0.741 155 175 200
-0.611 1.463 0.061 75 76 81
-0.611 1.585 -0.03 64 69 73
-0.611 2.729 -0.718 188 178 179
-0.611 2.023 -0.487 87 92 88
-0.611 1.706 -0.112 44 52 55
-0.611 2.632 -0.718 181 169 169
-0.611 1.901 -0.153 63 70 78
-0.611 2.461 -0.704 165 157 155
-0.611 2.656 -0.718 201 185 185
-0.611 2.315 -0.699 194 185 186
-0.611 2.12 -0.672 121 128 97
-0.611 1.049 0.413 38 50 62
-0.611 1.95 -0.161 95 99 108
-0.611 0.659 1.056 31 38 44
-0.611 0.805 0.852 33 40 50
-0.611 1.512 0.032 56 59 64
-0.611 1.195 0.209 38 42 51
-0.611 2.169 -0.683 151 148 133
-0.611 2.242 -0.691 230 223 217
-0.611 1.268 0.157 41 44 51
-0.611 2.899 -0.762 123 158 196
-0.611 1.171 0.233 40 47 57
-0.611 1.098 0.333 42 52 62
-0.611 2.583 -0.721 164 159 165
-0.611 0.903 0.659 20 26 38
-0.611 1.828 -0.15 80 90 89
-0.611 2.145 -0.676 134 138 111
-0.611 1.974 -0.194 103 108 114
-0.611 1.146 0.26 34 43 52
-0.611 1.414 0.077 70 71 76
-0.611 1.779 -0.131 26 37 33
-0.611 1.56 -0.007 30 33 38
-0.611 2.266 -0.692 207 199 196
-0.611 1.292 0.14 46 47 52
-1.509 3.588 -1.605 97 97 95
-1.509 2.333 -1.69 66 62 61
-1.509 2.423 -1.685 97 93 92
-1.509 0.541 -2.374 166 163 158
-1.509 3.05 -1.604 126 126 126
-1.509 3.678 -1.605 80 85 81
-1.509 1.079 -2.069 146 145 143
-1.509 0.765 -2.223 75 70 67
-1.509 -0.086 -2.578 115 111 110
-1.509 1.706 -1.862 76 81 77
-1.509 1.124 -2.044 146 145 143
-1.509 -0.131 -2.716 97 93 92
-1.509 2.468 -1.664 132 131 129
-1.509 3.14 -1.604 77 77 77
-1.509 2.558 -1.615 115 115 115
-1.509 1.258 -2.013 78 68 66
-1.509 2.289 -1.691 84 80 79
-1.509 1.034 -2.1 164 160 159
-1.509 3.095 -1.604 121 121 121
-1.509 2.244 -1.691 96 92 91
-1.509 3.767 -1.605 139 141 138
-1.509 2.826 -1.61 106 106 106
-1.509 0.676 -2.289 84 81 76
-1.509 0.9 -2.154 101 95 95
-1.509 -0.31 -3.169 40 38 39
-1.509 0.093 -2.506 129 124 120
-1.509 0.496 -2.396 163 160 153
-1.509 0.72 -2.258 59 55 52
-1.509 3.319 -1.605 89 89 87
-1.509 -0.176 -2.881 52 51 49
-1.509 1.392 -1.96 161 150 146
-1.509 0.451 -2.413 139 136 129
-1.509 3.543 -1.605 92 91 89
-1.509 1.751 -1.851 45 54 49
-1.509 2.692 -1.615 109 109 109
-1.509 3.857 -1.605 152 151 149
-1.509 3.723 -1.605 135 140 136
-1.509 0.227 -2.455 109 101 98
-1.509 1.885 -1.82 61 70 65
-1.509 3.454 -1.605 112 106 106
-1.509 3.812 -1.605 139 139 137
-1.509 2.647 -1.615 91 91 91
-1.509 0.362 -2.447 59 54 48
-1.509 0.317 -2.475 59 54 48
-1.509 3.633 -1.605 30 32 29
-1.509 3.498 -1.605 105 101 100
-1.509 2.199 -1.701 74 70 69
-1.509 1.617 -1.887 86 85 81
-1.509 1.527 -1.905 118 110 107
-1.509 2.154 -1.708 76 72 71
-1.509 -0.265 -3.139 30 28 29
-1.509 0.586 -2.352 102 99 94
-1.509 2.109 -1.734 105 104 102
-1.509 3.185 -1.604 65 65 65
-1.509 1.572 -1.895 113 110 105
-1.509 1.93 -1.799 64 70 66
-1.509 -0.221 -3.048 23 22 20
-1.509 2.602 -1.615 91 91 91
-1.509 1.796 -1.841 50 61 55
-1.509 0.183 -2.462 93 85 82
-1.509 0.048 -2.512 104 99 95
-1.509 1.348 -1.985 153 142 138
-1.509 2.737 -1.61 110 110 110
-1.509 3.364 -1.605 104 103 101
-1.509 0.272 -2.475 155 147 144
-1.509 2.378 -1.69 77 73 72
-1.509 2.916 -1.604 65 65 65
-1.509 2.871 -1.604 84 84 84
-1.509 0.631 -2.318 95 92 87
-1.509 2.513 -1.626 113 113 113
-1.509 2.961 -1.604 65 65 65
-1.509 1.213 -2.024 85 80 77
-1.509 1.482 -1.93 138 129 124
-1.509 0.407 -2.424 95 92 85
-1.509 0.81 -2.194 101 95 95
-1.509 3.902 -1.605 118 114 113
-1.509 0.989 -2.124 141 135 135
-1.509 2.782 -1.61 100 100 100
-1.509 0.855 -2.178 101 95 95
-1.509 3.274 -1.605 83 85 82
-1.509 1.661 -1.877 81 83 78
-1.509 1.303 -1.99 131 120 118
-1.509 2.02 -1.762 75 77 74
-1.509 -0.041 -2.518 92 88 85
-1.509 0.944 -2.129 87 81 81
-1.509 0.003 -2.505 93 89 86
-1.509 0.138 -2.485 106 98 95
-1.509 1.841 -1.827 54 65 59
-1.509 2.065 -1.745 90 90 88
-1.509 3.409 -1.605 100 96 95
-1.509 3.006 -1.604 89 89 89
-1.509 1.168 -2.038 140 136 133
-1.509 1.437 -1.941 114 103 99
-1.509 1.975 -1.788 70 75 71
-1.509 3.23 -1.604 78 80 77
-0.392 1 0.467 26 41 60
-0.392 1.317 0.08 48 47 52
-0.392 1.633 -0.099 20 27 33
-0.392 1.39 0.053 96 94 95
-0.392 1.195 0.163 68 76 79
-0.392 0.903 0.636 33 45 57
-0.392 1.755 -0.15 53 57 60
-0.392 0.952 0.566 20 32 46
-0.392 1.852 -0.163 64 66 63
-0.392 1.731 -0.15 47 52 56
-0.392 1.219 0.146 76 81 85
-0.392 1.268 0.115 60 61 65
-0.392 0.732 0.942 28 37 46
-0.392 2.096 -0.688 114 120 92
-0.392 2.388 -0.711 205 198 192
-0.392 1.925 -0.19 80 84 93
-0.392 2.899 -0.756 140 170 206
-0.392 2.193 -0.699 169 167 155
-0.392 2.072 -0.656 97 102 79
-0.392 2.437 -0.715 194 184 182
-0.392 0.659 1.034 33 40 48
-0.392 1.512 -0.006 20 25 29
-0.392 1.585 -0.06 49 58 65
-0.392 2.315 -0.704 181 174 168
-0.392 0.781 0.853 12 20 31
-0.392 2.802 -0.73 173 179 193
-0.392 0.927 0.599 28 40 52
-0.392 1.098 0.292 30 44 57
-0.392 0.854 0.721 14 24 36
-0.392 1.682 -0.128 28 33 37
-0.392 2.291 -0.704 193 189 180
-0.392 1.95 -0.202 105 109 120
-0.392 1.658 -0.116 18 25 31
-0.392 2.485 -0.715 212 201 199
-0.392 0.635 1.055 27 34 42
-0.392 2.12 -0.685 121 125 98
-0.392 2.266 -0.704 183 179 170
-0.392 0.879 0.678 24 34 46
-0.392 0.684 1.008 33 40 48
-0.392 2.851 -0.744 149 170 201
-0.392 1.609 -0.08 22 31 38
-0.392 2.729 -0.714 199 189 190
-0.392 2.583 -0.716 207 197 195
-0.392 2.875 -0.75 148 174 209
-0.392 2.607 -0.714 199 195 196
-0.392 1.365 0.056 92 90 93
-0.392 2.68 -0.711 210 205 209
-0.392 2.632 -0.714 152 150 153
-0.392 1.536 -0.021 15 22 28
-0.392 1.439 0.038 76 78 77
-0.392 2.51 -0.715 196 184 184
-0.392 2.656 -0.711 182 180 185
-0.392 1.073 0.343 35 51 66
-0.392 1.56 -0.043 16 23 29
-0.392 2.753 -0.718 199 188 192
-0.392 1.487 0.013 25 29 32
-0.392 2.169 -0.697 129 130 114
-0.392 1.049 0.386 35 51 67
-0.392 1.463 0.028 43 44 46
-0.392 0.976 0.522 23 36 52
-0.392 1.292 0.096 56 55 60
-0.392 1.122 0.248 41 54 63
-0.392 0.708 0.973 31 40 49
-0.392 1.998 -0.294 20 26 26
-0.392 2.364 -0.711 161 154 148
-0.392 2.412 -0.715 197 187 185
-0.392 2.924 -0.756 148 178 216
-0.392 2.705 -0.714 203 194 195
-0.392 2.339 -0.704 167 160 154
-0.392 0.83 0.76 12 22 32
-0.392 1.779 -0.145 75 76 78
-0.392 1.244 0.131 63 67 70
-0.392 0.805 0.806 8 18 28
-0.392 1.171 0.187 70 79 84
-0.392 2.778 -0.724 203 198 205
-0.392 1.341 0.068 69 67 72
-0.392 1.828 -0.154 73 75 72
-0.392 2.558 -0.716 172 158 155
-0.392 2.534 -0.715 176 165 163
-0.392 2.242 -0.699 187 183 172
-0.392 1.804 -0.149 69 69 69
-0.392 2.023 -0.428 75 81 71
-0.392 2.047 -0.557 109 116 98
-0.392 1.025 0.422 26 41 60
-0.392 1.877 -0.171 55 59 58
-0.392 1.706 -0.141 28 33 37
-0.392 2.218 -0.699 201 197 186
-0.392 1.414 0.047 99 99 97
-0.392 1.901 -0.181 65 69 72
-0.392 2.461 -0.715 201 190 188
-0.392 2.826 -0.74 146 161 184
-0.392 1.974 -0.238 69 74 80
-0.392 2.145 -0.688 114 118 95
-0.392 1.146 0.211 63 73 82
-0.392 0.757 0.898 21 29 40
-7.245 3.588 -3.247 54 62 65
-7.245 2.871 -3.496 46 56 58
-7.245 3.498 -3.264 61 69 72
-7.245 0.944 -3.93 36 41 45
-7.245 3.812 -3.227 43 51 54
-7.245 3.14 -3.424 37 47 49
-7.245 2.558 -3.462 45 55 57
-7.245 3.678 -3.239 41 49 52
-7.245 0.765 -3.91 26 31 35
-7.245 3.23 -3.348 57 65 68
-7.245 1.258 -3.982 22 30 33
-7.245 1.213 -3.967 24 32 35
-7.245 1.303 -3.987 24 32 35
-7.245 3.095 -3.437 30 40 42
-7.245 -0.221 -3.651 29 39 41
-7.245 3.274 -3.325 64 72 75
-7.245 0.586 -3.874 22 27 31
-7.245 -0.131 -3.673 23 33 35
-7.245 0.138 -3.754 17 27 29
-7.245 2.916 -3.486 43 53 55
-7.245 1.392 -4.007 33 41 44
-7.245 0.72 -3.9 25 30 34
-7.245 1.885 -3.748 64 74 76
-7.245 1.975 -3.655 28 38 40
-7.245 1.482 -4.023 40 48 51
-7.245 0.9 -3.93 36 41 45
-7.245 2.02 -3.62 24 34 36
-7.245 2.289 -3.496 37 47 49
-7.245 0.676 -3.89 21 26 30
-7.245 3.633 -3.242 43 51 54
-7.245 1.527 -4.023 32 40 43
-7.245 3.543 -3.254 50 58 61
-7.245 2.423 -3.445 68 78 80
-7.245 0.048 -3.722 18 28 30
-7.245 2.602 -3.473 41 51 53
-7.245 1.437 -4.017 34 42 45
-7.245 -0.086 -3.685 23 33 35
-7.245 0.451 -3.839 25 30 34
-7.245 -0.176 -3.665 25 35 37
-7.245 2.513 -3.455 60 70 72
-7.245 1.796 -3.832 39 49 51
-7.245 1.168 -3.966 27 35 38
-7.245 -0.31 -3.634 25 35 37
-7.245 2.244 -3.516 31 41 43
-7.245 0.093 -3.745 16 26 28
-7.245 0.272 -3.776 27 37 39
-7.245 0.989 -3.941 32 37 41
-7.245 1.841 -3.781 57 67 69
-7.245 0.317 -3.796 26 36 38
-7.245 0.003 -3.714 20 30 32
-7.245 3.857 -3.22 39 47 50
-7.245 1.93 -3.704 48 58 60
-7.245 1.572 -4.007 24 32 35
-7.245 3.454 -3.29 64 72 75
-7.245 0.362 -3.827 26 34 37
-7.245 2.199 -3.528 36 46 48
-7.245 3.319 -3.318 61 69 72
-7.245 2.961 -3.473 32 42 44
-7.245 0.541 -3.86 22 27 31
-7.245 2.065 -3.585 33 43 45
-7.245 1.706 -3.94 20 28 31
-7.245 3.364 -3.302 52 60 63
-7.245 0.496 -3.851 24 29 33
-7.245 0.227 -3.764 26 36 38
-7.245 1.079 -3.96 26 34 37
-7.245 3.723 -3.228 51 59 62
-7.245 2.826 -3.496 40 50 52
-7.245 0.631 -3.885 21 26 30
-7.245 1.617 -3.992 22 30 33
-7.245 2.154 -3.548 43 53 55
-7.245 2.109 -3.573 42 52 54
-7.245 -0.041 -3.7 24 34 36
-7.245 1.034 -3.951 28 33 37
-7.245 2.737 -3.493 64 74 76
-7.245 3.05 -3.46 37 47 49
-7.245 2.468 -3.442 70 80 82
-7.245 3.767 -3.227 52 60 63
-7.245 2.692 -3.483 69 79 81
-7.245 1.348 -3.993 28 36 39
-7.245 3.902 -3.22 45 53 56
-7.245 1.751 -3.9 24 32 35
-7.245 0.183 -3.764 22 32 34
-7.245 3.409 -3.295 54 62 65
-7.245 2.647 -3.475 55 65 67
-7.245 3.006 -3.468 37 47 49
-7.245 2.782 -3.493 50 60 62
-7.245 1.124 -3.97 27 35 38
-7.245 0.855 -3.921 33 38 42
-7.245 3.185 -3.394 36 46 48
-7.245 0.81 -3.921 28 33 37
-7.245 1.661 -3.97 19 27 30
-7.245 2.333 -3.473 51 61 63
-7.245 2.378 -3.46 62 72 74
-7.245 -0.265 -3.646 28 38 40
-7.245 0.407 -3.834 27 32 36
-4.117 1 1.205 1 2 7
-4.117 2.778 -0.561 43 52 59
-4.117 1.146 1.132 24 14 13
-4.117 1.877 1.635 67 68 73
-4.117 1.925 1.527 28 29 34
-4.117 2.607 -0.514 41 51 50
-4.117 2.072 0.073 33 34 39
-4.117 2.145 -0.089 36 39 46
-4.117 1.365 1.18 61 38 30
-4.117 1.195 1.14 47 31 31
-4.117 2.023 0.826 0 1 6
-4.117 1.025 1.132 22 20 25
-4.117 1.731 1.587 36 37 42
-4.117 0.952 1.485 69 80 86
-4.117 1.317 1.168 70 45 38
-4.117 1.487 1.159 38 27 21
-4.117 1.95 1.442 15 16 21
-4.117 2.315 -0.308 35 43 45
-4.117 2.656 -0.529 31 41 43
-4.117 2.266 -0.222 25 33 36
-4.117 1.268 1.147 74 50 46
-4.117 1.122 1.122 24 15 16
-4.117 0.903 1.541 82 95 101
-4.117 1.39 1.157 52 35 27
-4.117 1.049 1.12 28 23 29
-4.117 2.924 -0.591 74 84 86
-4.117 2.169 -0.099 30 34 43
-4.117 1.852 1.662 77 78 83
-4.117 0.927 1.517 86 99 105
-4.117 1.609 1.184 34 30 31
-4.117 2.899 -0.594 70 80 82
-4.117 0.659 1.496 32 35 40
-4.117 2.12 -0.07 26 27 32
-4.117 1.633 1.241 31 29 32
