ply
format ascii 1.0
comment VCGLIB generated
element vertex 1642
property float x
property float y
property float z
property uchar red
property uchar green
property uchar blue
element face 0
property list uchar int vertex_indices
end_header
0.144 0.264 3.605 82 83 75
0.144 5.273 -1.976 252 253 255
0.144 1.845 -0.397 37 47 39
0.144 5.405 -2.155 242 243 245
0.144 5.734 -1.468 152 153 155
0.144 2.307 -1.739 28 28 28
0.144 3.889 -5.237 181 184 177
0.144 0.923 2.221 62 63 55
0.144 0.593 3.153 96 97 89
0.144 4.284 -3.398 232 233 237
0.144 5.8 -1.375 84 85 87
0.144 3.955 -5.317 120 122 117
0.144 1.516 0.709 38 40 29
0.144 5.207 -1.388 197 198 202
0.144 5.668 -1.58 173 174 176
0.144 3.625 -3.742 14 17 10
0.144 4.746 -1.499 237 239 234
0.144 1.252 1.518 36 30 18
0.144 4.548 -2.609 237 239 236
0.144 1.318 1.329 31 27 16
0.144 0.198 3.675 78 79 71
0.144 4.086 -4.407 90 92 89
0.144 1.12 1.809 74 68 56
0.144 2.636 -2.593 84 85 80
0.144 0.132 3.786 71 72 64
0.144 3.559 -3.735 15 18 11
0.144 5.075 -1.226 254 255 255
0.144 5.536 -1.875 232 233 235
0.144 2.043 -0.932 37 43 39
0.144 2.9 -3.512 41 42 36
0.144 0.395 3.453 64 65 57
0.144 1.45 0.899 35 35 25
0.144 1.977 -0.745 39 49 41
0.144 3.361 -3.878 18 20 19
0.144 6.196 -0.637 41 42 44
0.144 2.373 -1.922 38 38 38
0.144 4.416 -3.08 242 244 243
0.144 5.339 -2.252 245 246 248
0.144 5.866 -1.25 9 10 12
0.144 1.186 1.705 76 70 58
0.144 3.295 -3.869 11 13 12
0.144 2.768 -3.115 44 45 40
0.144 4.482 -2.831 242 244 241
0.144 0.329 3.51 69 70 62
0.144 4.943 -1.026 121 123 120
0.144 4.35 -3.29 230 231 233
0.144 2.241 -1.585 34 34 34
0.144 0.791 2.622 112 113 105
0.144 3.691 -3.828 18 21 14
0.144 5.141 -1.175 204 205 209
0.144 2.57 -2.382 21 21 19
0.144 4.811 -1.161 158 160 155
0.144 6.064 -0.851 12 13 15
0.144 0.725 2.824 40 41 33
0.144 0.857 2.45 107 108 100
6.603 3.098 -8.158 98 109 75
6.603 3.164 -8.198 92 106 70
6.603 5.734 -7.921 230 236 236
6.603 1.78 -8.1 113 126 100
6.603 2.109 -7.97 73 84 52
6.603 1.12 -2.549 44 46 43
6.603 3.361 -8.138 99 113 77
6.603 4.877 -8.614 241 243 242
6.603 2.307 -8.021 93 104 70
6.603 1.45 -4.371 109 110 94
6.603 1.252 -3.067 146 145 140
6.603 3.955 -8.636 179 183 169
6.603 6.13 -11.028 238 244 244
6.603 3.032 -8.158 95 106 72
6.603 3.295 -8.189 105 120 81
6.603 2.702 -8.115 92 103 69
6.603 2.241 -8.013 81 92 58
6.603 3.889 -8.496 182 189 173
6.603 2.636 -8.064 91 102 68
6.603 4.152 -8.923 243 245 240
6.603 0.395 -0.671 117 113 110
6.603 0.923 -2.263 50 50 50
6.603 0.725 -1.741 123 123 123
6.603 5.075 -8.39 241 243 242
6.603 5.207 -8.296 239 243 242
6.603 2.439 -8.046 97 108 74
6.603 1.911 -7.955 120 130 103
6.603 3.625 -8.17 98 109 77
6.603 3.757 -8.296 138 146 122
6.603 4.614 -8.922 242 244 243
6.603 5.471 -8.181 240 246 246
6.603 4.416 -9.04 242 244 243
6.603 0.132 0.15 125 120 116
6.603 5.009 -8.434 241 243 242
6.603 6.064 -8.669 236 242 242
6.603 2.768 -8.115 91 102 68
6.603 0.329 -0.445 117 113 110
6.603 4.68 -8.851 242 244 243
6.603 2.373 -8.021 89 100 66
6.603 0.527 -1.124 130 129 127
6.603 3.559 -8.12 96 107 73
6.603 5.273 -8.25 236 242 242
6.603 1.582 -7.165 57 65 42
6.603 0.791 -1.973 122 122 122
6.603 5.932 -7.798 243 249 249
6.603 4.548 -8.969 242 244 243
6.603 5.8 -7.905 228 234 234
6.603 1.384 -3.648 161 159 147
6.603 4.35 -9.04 242 244 243
6.603 5.998 -8.015 243 249 249
6.603 0.461 -0.925 105 101 98
6.603 1.845 -7.999 115 125 98
6.603 4.284 -9.04 242 244 243
6.603 5.141 -8.34 241 243 242
6.603 1.054 -2.384 4 6 5
6.603 1.516 -5.556 69 74 54
6.603 0.989 -2.328 26 26 26
6.603 0.066 0.266 128 123 119
6.603 0.659 -1.558 128 128 128
6.603 0.593 -1.327 136 135 133
6.603 2.175 -8.013 73 84 50
6.603 4.086 -8.792 249 252 245
6.603 3.823 -8.413 180 188 167
6.603 1.186 -2.831 115 116 111
6.603 1.318 -3.248 162 159 152
6.603 3.493 -8.12 91 105 69
6.603 0.857 -2.104 94 94 94
6.603 0.198 -0.004 123 118 114
6.603 4.746 -8.817 241 243 242
6.603 3.23 -8.198 101 116 77
6.603 5.668 -8.037 231 237 237
6.603 2.9 -8.138 87 98 64
6.603 5.866 -7.764 234 240 240
6.603 5.339 -8.231 238 244 244
6.603 3.691 -8.236 98 107 80
6.603 5.405 -8.231 240 246 246
6.603 4.482 -9.02 242 244 243
6.603 3.427 -8.138 91 105 69
6.603 2.57 -8.064 117 128 94
6.603 1.648 -7.804 58 68 43
6.603 2.043 -7.953 79 88 59
6.603 1.977 -7.937 109 118 91
6.603 5.602 -8.085 234 240 240
6.603 2.834 -8.138 89 100 66
6.603 4.02 -8.72 215 218 209
6.603 4.811 -8.72 241 243 242
6.603 5.536 -8.158 238 244 244
6.603 4.943 -8.518 241 243 242
6.603 2.966 -8.158 90 101 67
6.603 1.714 -8.021 90 103 77
6.603 2.505 -8.046 120 131 97
6.603 4.218 -8.993 242 244 241
6.603 0.264 -0.215 123 119 116
0.935 6.13 -8.645 241 242 244
0.935 0.461 2.67 79 80 72
0.935 5.471 -7.711 241 242 244
0.935 2.439 -2.469 25 25 25
0.935 5.075 -7.469 239 240 242
0.935 5.602 -7.862 241 242 244
0.935 0.329 2.766 80 81 73
0.935 4.68 -3.22 202 204 199
0.935 4.218 -8.313 241 242 247
0.935 6.064 -8.457 241 242 244
0.935 0.198 2.945 91 92 84
0.935 3.23 -3.454 23 26 17
0.935 0.857 2.12 82 83 75
0.935 0.264 2.824 79 80 72
0.935 5.405 -7.61 241 242 244
0.935 2.241 -1.748 74 74 74
0.935 1.12 1.456 54 55 59
0.935 0.791 2.206 21 22 14
0.935 5.273 -7.526 241 242 244
0.935 0.066 3.119 103 104 96
0.935 2.702 -3.049 11 12 7
0.935 6.261 -8.9 241 242 244
0.935 0.395 2.712 83 84 76
0.935 0.923 1.982 115 116 108
0.935 1.977 -0.762 59 59 51
0.935 4.482 -4.353 175 177 174
0.935 3.164 -3.377 24 27 18
0.935 5.734 -7.896 241 242 244
0.935 5.141 -7.578 236 237 241
0.935 1.384 0.591 34 36 35
0.935 3.691 -8.943 156 159 152
0.935 2.966 -3.129 18 19 13
0.935 5.207 -7.6 244 245 249
0.935 4.811 -3.274 222 224 219
0.935 1.318 0.838 25 26 28
0.935 5.536 -7.812 241 242 244
0.935 0.989 1.828 51 52 47
0.935 1.252 1.057 44 45 47
0.935 4.548 -3.724 242 244 241
0.935 2.834 -3.21 18 19 14
0.935 3.757 -8.991 160 162 159
0.935 2.636 -2.928 8 9 4
0.935 2.768 -3.152 15 16 11
0.935 1.186 1.27 65 66 70
0.935 0.527 2.622 81 82 74
0.935 4.877 -5.627 245 247 244
0.935 5.998 -8.198 241 242 244
0.935 1.845 -0.598 1 1 0
0.935 1.78 -0.445 16 15 10
0.935 2.9 -3.156 18 19 13
0.935 2.175 -1.493 39 39 39
0.935 1.582 -0.003 36 37 32
0.935 4.614 -3.719 248 250 245
0.935 3.889 -8.68 228 229 231
0.935 1.714 -0.306 18 17 12
0.935 3.098 -3.137 19 20 14
0.935 3.823 -8.77 192 194 193
0.935 3.295 -3.405 12 15 4
0.935 6.196 -8.8 241 242 244
0.935 0.659 2.475 77 78 70
0.935 2.505 -2.617 17 17 15
0.935 2.043 -0.932 84 83 78
0.935 4.416 -5.869 226 228 227
0.935 3.361 -3.629 39 42 31
0.935 4.35 -7.048 240 241 243
0.935 3.559 -8.167 145 148 139
0.935 3.493 -5.981 130 133 122
0.935 3.427 -4.427 96 99 88
0.935 3.625 -8.658 156 159 150
0.935 4.746 -2.633 127 129 124
0.935 2.57 -2.779 15 15 13
0.935 1.648 -0.172 17 18 13
0.935 5.866 -7.922 241 242 244
0.935 0.132 3.023 108 109 101
0.935 3.955 -8.74 238 239 243
0.935 1.911 -0.688 15 15 7
0.935 5.8 -7.887 241 242 244
0.935 4.943 -7.048 246 248 245
0.935 5.339 -7.533 241 242 244
0.935 2.373 -2.267 43 43 43
0.935 2.307 -2.007 95 95 95
0.935 3.032 -3.062 19 20 14
0.935 4.284 -7.719 239 240 244
0.935 5.932 -8.05 241 242 244
0.935 1.054 1.624 50 51 53
0.935 1.516 0.156 30 30 28
0.935 0.593 2.574 78 79 71
0.935 4.152 -8.345 240 240 248
0.935 4.02 -8.705 240 241 246
0.935 5.009 -7.324 239 241 240
0.935 2.109 -1.226 51 51 49
0.935 5.668 -7.896 241 242 244
0.935 0.725 2.357 75 76 68
0.935 4.086 -8.558 244 244 252
0.935 1.45 0.357 34 34 34
-4.404 0.066 3.675 32 34 33
-4.404 3.098 -3.438 44 46 45
-4.404 1.78 -0.02 19 20 22
-4.404 0.923 3.574 24 27 20
-4.404 5.536 -8.259 230 235 239
-4.404 4.218 -5.827 108 113 109
-4.404 2.57 -2.137 57 59 58
-4.404 3.955 -5.286 63 62 57
-4.404 0.329 3.435 27 29 26
-4.404 2.505 -1.955 40 42 41
-4.404 5.339 -8.162 229 234 238
-4.404 2.175 -1.118 40 42 41
-4.404 1.648 0.512 26 28 27
-4.404 4.416 -5.91 35 43 30
-4.404 0.395 3.273 25 27 24
-4.404 1.714 0.2 23 24 26
-4.404 2.043 -0.835 33 34 38
-4.404 2.109 -0.967 31 32 34
-4.404 3.361 -3.997 39 41 40
-4.404 2.966 -3.131 52 54 53
-4.404 3.625 -4.56 42 42 40
-4.404 1.12 5.662 15 19 5
-4.404 5.602 -8.28 231 236 240
-4.404 2.702 -2.425 63 65 64
-4.404 5.405 -8.158 230 235 239
-4.404 4.152 -5.696 56 55 51
-4.404 0.461 3.047 24 26 23
-4.404 6.064 -7.724 236 241 245
-4.404 1.911 -0.464 45 46 50
-4.404 3.032 -3.268 48 50 49
-4.404 1.582 0.937 19 21 18
-4.404 5.273 -8.15 225 233 236
-4.404 6.261 -7.521 236 241 245
-4.404 2.9 -2.956 50 52 51
-4.404 0.527 2.739 22 24 19
-4.404 0.857 2.606 22 24 19
-4.404 3.295 -3.877 42 44 43
-4.404 2.241 -1.265 42 44 43
-4.404 3.889 -5.19 116 115 111
-4.404 5.141 -8.138 221 233 233
-4.404 5.075 -8.157 215 227 227
-4.404 5.668 -8.266 233 238 242
-4.404 1.318 4.7 20 23 14
-4.404 0.132 3.671 23 25 24
-4.404 2.307 -1.45 39 41 40
-4.404 3.164 -3.639 38 42 41
-4.404 1.054 5.485 18 21 10
-4.404 5.734 -8.222 236 241 245
-4.404 1.252 5.427 19 22 11
-4.404 0.198 3.633 12 14 13
-4.404 3.823 -5.039 111 110 106
-4.404 3.559 -4.451 24 24 22
-4.404 5.932 -7.995 236 241 245
-4.404 3.691 -4.709 102 103 98
-4.404 3.757 -4.869 107 108 103
-4.404 1.45 2.506 17 20 13
-4.404 5.998 -7.847 237 242 246
-4.404 6.196 -7.554 235 240 244
-4.404 4.548 -5.975 32 41 24
-4.404 5.207 -8.097 220 230 231
-4.404 6.13 -7.607 235 240 244
-4.404 1.186 5.489 15 18 7
-4.404 1.845 -0.23 31 32 36
-4.404 4.614 -6.06 19 30 14
-4.404 4.943 -7.812 216 226 228
-4.404 5.471 -8.198 230 235 239
-4.404 2.834 -2.73 50 52 51
-4.404 4.877 -7.652 226 236 237
-4.404 4.811 -7.276 228 239 235
-4.404 2.636 -2.251 62 64 63
-4.404 5.866 -8.096 232 237 241
-4.404 3.23 -3.759 35 39 38
-4.404 4.746 -6.701 177 188 180
-4.404 2.439 -1.787 32 34 33
-4.404 4.086 -5.586 29 26 21
-4.404 0.725 2.496 19 21 16
-4.404 2.768 -2.569 58 60 59
-4.404 1.977 -0.671 43 44 49
-4.404 4.68 -6.191 39 49 38
-4.404 4.02 -5.428 19 18 13
-4.404 4.35 -5.878 53 60 52
-4.404 5.8 -8.189 228 233 237
-4.404 3.427 -4.144 40 42 41
-4.404 3.493 -4.312 33 35 34
-4.404 0.989 4.406 28 31 22
-4.404 1.516 1.558 21 23 18
-4.404 1.384 3.516 17 20 11
-4.404 4.482 -5.926 45 53 38
-4.404 0.593 2.55 16 18 13
-4.404 0.264 3.591 19 21 18
-4.404 4.284 -5.877 95 101 97
-4.404 0.659 2.457 14 16 11
-4.404 0.791 2.382 23 25 20
-4.404 2.373 -1.617 35 37 36
-4.404 5.009 -8.053 218 229 231
-3.547 0.132 4.115 22 24 23
-3.547 2.175 3.417 26 26 24
-3.547 2.439 1.891 20 20 18
-3.547 3.295 -4.296 84 83 81
-3.547 1.45 0.338 36 36 36
-3.547 1.582 -0.207 28 28 28
-3.547 2.966 -3.274 46 46 44
-3.547 4.086 -5.977 163 162 160
-3.547 4.877 -9.232 228 233 239
-3.547 0.066 4.236 16 18 17
-3.547 1.977 0.39 45 45 45
-3.547 2.373 2.892 12 12 10
-3.547 4.284 -6.148 111 124 104
-3.547 0.264 3.744 22 24 23
-3.547 5.009 -9.236 227 231 234
-3.547 5.602 -9.302 239 244 248
-3.547 0.198 3.977 24 26 25
-3.547 4.811 -9.01 230 235 239
-3.547 3.691 -5.281 29 28 26
-3.547 1.648 -0.405 27 27 27
-3.547 3.098 -3.697 67 67 65
-3.547 3.955 -5.761 114 113 111
-3.547 5.668 -9.316 236 241 245
-3.547 2.702 -2.525 64 64 62
-3.547 1.318 0.762 54 54 54
-3.547 1.714 -0.557 27 27 27
-3.547 0.593 2.622 23 25 24
-3.547 0.527 2.85 16 18 17
-3.547 5.273 -9.157 232 237 241
-3.547 1.516 0.058 33 33 33
-3.547 4.35 -6.315 107 122 93
-3.547 5.339 -9.178 234 239 243
-3.547 3.757 -5.361 69 68 66
-3.547 1.845 -0.394 19 19 19
-3.547 0.791 1.947 19 21 20
-3.547 5.471 -9.236 240 245 249
-3.547 4.943 -9.306 227 232 236
-3.547 1.384 0.564 44 44 44
-3.547 4.218 -6.029 83 91 78
-3.547 6.064 -9.111 227 232 236
-3.547 5.207 -9.209 228 231 236
-3.547 6.261 -9.067 233 238 242
-3.547 2.307 3.381 12 12 10
-3.547 2.834 -2.985 59 59 57
-3.547 3.23 -4.149 45 44 42
-3.547 2.505 0.353 33 33 31
-3.547 3.493 -4.785 47 46 44
-3.547 4.614 -7.206 112 124 102
-3.547 4.416 -6.468 116 132 96
-3.547 2.636 -1.917 63 63 61
-3.547 5.998 -9.125 227 232 236
-3.547 0.395 3.273 20 22 21
-3.547 5.866 -9.174 228 233 237
-3.547 1.252 0.934 53 53 53
-3.547 0.989 1.604 22 24 23
-3.547 1.12 1.316 27 27 27
-3.547 3.823 -5.49 115 114 112
-3.547 0.461 3.051 22 24 23
-3.547 3.625 -5.122 28 27 25
-3.547 2.768 -2.785 56 56 54
-3.547 5.141 -9.192 228 231 236
-3.547 3.032 -3.444 87 87 85
-3.547 5.405 -9.206 237 242 246
-3.547 2.109 2.799 37 37 35
-3.547 2.241 3.526 16 16 14
-3.547 1.911 -0.095 35 35 35
-3.547 5.536 -9.289 240 245 249
-3.547 3.427 -4.629 13 12 10
-3.547 2.9 -3.135 49 49 47
-3.547 3.889 -5.616 124 123 121
-3.547 4.482 -6.586 135 151 115
-3.547 4.746 -8.684 231 237 235
-3.547 4.02 -5.876 105 104 102
-3.547 4.548 -6.839 120 133 103
-3.547 0.329 3.524 19 21 20
-3.547 5.734 -9.345 234 239 243
-3.547 2.043 1.299 36 36 36
-3.547 1.054 1.45 19 19 19
-3.547 0.659 2.389 29 31 30
-3.547 0.923 1.745 17 19 18
-3.547 2.57 -0.867 43 43 41
-3.547 1.186 1.125 42 42 42
-3.547 0.725 2.154 26 28 27
-3.547 4.68 -7.666 200 210 199
-3.547 0.857 1.844 14 16 15
-3.547 3.361 -4.457 74 73 71
-3.547 1.78 -0.565 20 20 20
-3.547 6.13 -9.067 229 234 238
-3.547 3.559 -4.958 51 50 48
-3.547 5.075 -9.192 227 231 234
-3.547 6.196 -9.041 232 237 241
-3.547 5.932 -9.152 227 232 236
-3.547 5.8 -9.154 229 234 238
-3.547 4.152 -6.027 153 154 149
-3.547 3.164 -3.973 33 32 30
-1.174 0.198 4.658 77 77 69
-1.174 0.264 4.541 80 77 70
-1.174 4.35 -5.683 210 212 211
-1.174 5.141 -4.296 181 186 190
-1.174 5.602 -3.164 136 139 130
-1.174 3.098 -0.592 16 22 12
-1.174 2.043 0.276 88 83 64
-1.174 4.482 -8.382 229 233 236
-1.174 5.405 -2.734 203 206 215
-1.174 4.218 -3.001 1 0 0
-1.174 0.659 3.8 94 88 74
-1.174 0.132 4.741 89 88 83
-1.174 2.307 -0.43 65 64 62
-1.174 1.054 2.483 107 92 73
-1.174 6.196 -9.678 214 225 229
-1.174 2.109 0.022 78 74 65
-1.174 0.989 2.759 88 80 61
-1.174 1.845 0.896 123 116 98
-1.174 2.636 -0.877 13 13 15
-1.174 4.746 -8.872 220 229 236
-1.174 4.152 -2.887 21 20 18
-1.174 0.923 2.966 83 78 59
-1.174 3.23 -0.497 12 20 7
-1.174 0.461 4.259 89 87 75
-1.174 6.261 -9.66 209 220 224
-1.174 3.295 -0.487 13 19 9
-1.174 1.12 2.308 110 93 73
-1.174 4.68 -8.851 223 230 236
-1.174 2.439 -0.722 8 6 7
-1.174 0.329 4.458 81 78 69
-1.174 3.889 -1.444 112 123 119
-1.174 3.691 -0.706 99 109 108
-1.174 5.668 -1.513 123 127 112
-1.174 5.8 -8.215 220 222 217
-1.174 1.648 1.485 92 87 65
-1.174 5.207 -2.436 210 215 218
-1.174 2.57 -0.869 15 15 17
-1.174 3.164 -0.531 16 24 11
-1.174 3.757 -0.865 98 110 108
-1.174 4.02 -2.315 81 83 80
-1.174 5.009 -9.194 228 233 237
-1.174 3.493 -0.49 15 20 14
-1.174 2.768 -0.762 14 16 13
-1.174 3.625 -0.585 58 67 64
-1.174 4.416 -7.525 229 230 232
-1.174 4.086 -2.664 4 4 2
-1.174 0.593 4.002 41 37 25
-1.174 0.857 3.129 84 79 60
-1.174 3.823 -1.114 110 122 118
-1.174 1.186 2.136 112 97 74
-1.174 1.977 0.495 104 98 76
-1.174 4.877 -9.166 219 226 232
-1.174 4.548 -8.744 230 235 239
-1.174 5.866 -9.517 216 220 221
-1.174 4.811 -8.94 219 228 235
-1.174 2.966 -0.654 17 20 13
-1.174 4.284 -3.743 82 82 80
-1.174 0.527 4.128 61 57 45
-1.174 3.361 -0.497 16 22 12
-1.174 4.943 -9.192 219 226 232
-1.174 0.791 3.357 86 80 64
-1.174 2.175 -0.155 92 88 85
-1.174 1.252 1.965 112 101 73
-1.174 1.516 1.649 97 92 63
-1.174 5.932 -9.688 215 220 226
-1.174 5.998 -9.83 216 223 231
-1.174 3.559 -0.546 0 2 0
-1.174 4.614 -8.818 225 232 238
-1.174 5.536 -3.692 234 236 235
-1.174 1.714 1.334 64 59 40
-1.174 5.075 -8.319 225 230 234
-1.174 0.395 4.342 77 75 63
-1.174 5.471 -3.41 238 241 250
-1.174 1.384 1.778 104 98 66
-1.174 6.13 -9.679 218 227 232
-1.174 1.45 1.705 99 94 64
-1.174 1.911 0.681 118 111 92
-1.174 5.339 -1.794 148 153 156
-1.174 2.241 -0.28 92 91 87
-1.174 5.734 -2.58 208 212 197
-1.174 2.702 -0.843 14 14 14
-1.174 6.064 -9.696 219 228 233
-1.174 3.032 -0.615 16 22 12
-1.174 2.373 -0.609 28 27 25
-1.174 0.066 4.789 117 116 111
-1.174 1.582 1.575 95 91 66
-1.174 1.78 1.109 99 94 75
-1.174 2.9 -0.706 16 18 13
-1.174 5.273 -1.692 227 233 233
-1.174 3.955 -1.884 123 129 125
-1.174 3.427 -0.485 23 26 19
-1.174 1.318 1.88 110 101 70
-1.174 2.834 -0.745 15 17 14
-1.174 0.725 3.598 114 108 92
-1.174 2.505 -0.835 8 8 8
-2.492 1.186 2.538 25 25 25
-2.492 0.791 3.706 72 70 58
-2.492 0.132 5.542 48 53 47
-2.492 1.516 1.999 18 19 14
-2.492 2.636 -0.283 42 42 40
-2.492 5.602 -0.403 210 214 213
-2.492 0.527 4.747 113 110 93
-2.492 0.198 5.509 40 43 36
-2.492 1.845 1.897 103 105 94
-2.492 4.416 -2.186 61 64 57
-2.492 0.989 3.11 23 22 18
-2.492 0.066 5.545 53 58 54
-2.492 2.439 0.253 33 33 31
-2.492 1.714 2.016 0 1 0
-2.492 4.35 -2.354 53 56 47
-2.492 2.768 -0.585 31 31 29
-2.492 2.043 1.396 64 65 57
-2.492 1.12 2.697 24 24 24
-2.492 1.977 1.614 72 74 63
-2.492 6.13 0.485 196 204 206
-2.492 2.834 -0.718 21 21 19
-2.492 4.086 -2.477 15 17 14
-2.492 5.075 0.102 79 82 75
-2.492 4.614 -1.304 116 118 115
-2.492 4.68 -0.994 135 137 134
-2.492 0.923 3.346 42 39 32
-2.492 3.955 -2.375 5 7 4
-2.492 0.857 3.503 53 50 41
-2.492 1.78 1.982 71 73 62
-2.492 0.725 3.952 87 85 72
-2.492 3.098 -1.05 29 29 27
-2.492 3.164 -0.95 21 23 20
-2.492 1.384 2.016 33 33 31
-2.492 1.45 1.999 28 28 26
-2.492 6.196 0.62 158 166 168
-2.492 5.536 -0.729 226 231 227
-2.492 1.054 2.884 20 20 20
-2.492 3.23 -0.84 15 17 14
-2.492 5.998 -0.022 220 228 230
-2.492 5.734 0.635 189 193 192
-2.492 5.009 -0.093 149 152 145
-2.492 4.943 -0.345 178 180 175
-2.492 0.329 5.32 12 12 0
-2.492 2.966 -1.005 37 37 35
-2.492 2.9 -0.877 28 28 26
-2.492 3.361 -0.766 15 17 14
-2.492 5.932 -0.256 215 224 223
-2.492 1.318 2.119 27 27 27
-2.492 2.505 0.074 28 28 26
-2.492 0.659 4.213 96 92 80
-2.492 4.877 -0.525 207 209 204
-2.492 4.02 -2.408 6 8 5
-2.492 4.548 -1.669 104 106 103
-2.492 5.141 0.328 27 30 21
-2.492 2.702 -0.422 33 33 31
-2.492 1.911 1.747 84 86 75
-2.492 6.261 0.668 120 128 130
-2.492 2.175 0.935 34 34 32
-2.492 4.811 -0.623 201 203 200
-2.492 1.648 1.999 9 10 4
-2.492 4.482 -1.975 105 107 102
-2.492 3.427 -0.954 15 17 14
-2.492 4.218 -2.516 0 3 0
-2.492 3.757 -2.329 0 2 0
-2.492 5.866 -0.359 218 224 224
-2.492 4.152 -2.489 16 18 13
-2.492 3.559 -1.622 45 47 44
-2.492 2.57 -0.099 28 28 26
-2.492 6.064 0.261 215 223 225
-2.492 3.295 -0.764 12 14 11
-2.492 0.461 4.995 104 101 86
-2.492 0.395 5.2 10 8 0
-2.492 0.593 4.507 107 104 89
-2.492 5.339 -0.276 241 243 240
-2.492 3.032 -1.09 26 26 24
-2.492 3.625 -1.972 6 8 5
-2.492 5.207 0.353 76 79 72
-2.492 4.746 -0.795 172 174 171
-2.492 5.273 -0.075 208 210 205
-2.492 5.8 0.08 227 233 231
-2.492 2.307 0.659 23 23 21
-2.492 3.493 -1.228 67 69 66
-2.492 3.823 -2.365 13 15 12
-2.492 3.889 -2.388 16 18 15
-2.492 1.252 2.325 22 22 22
-2.492 0.264 5.456 10 12 1
-2.492 2.109 1.137 42 43 38
-2.492 5.405 -0.232 219 221 218
-2.492 2.241 0.799 27 27 25
-2.492 4.284 -2.466 40 43 34
-2.492 2.373 0.452 29 29 27
-2.492 5.668 0.417 123 127 126
-2.492 1.582 1.999 8 9 3
-2.492 3.691 -2.24 0 1 0
-2.492 5.471 -0.358 171 173 170
-1.57 3.757 -1.257 67 79 77
-1.57 2.702 -0.524 8 9 4
-1.57 1.845 1.417 125 119 97
-1.57 4.811 -9.307 218 227 234
-1.57 1.516 1.842 50 49 45
-1.57 4.943 -9.414 213 220 226
-1.57 2.57 -0.455 92 93 85
-1.57 1.45 1.879 65 64 59
-1.57 0.264 4.696 75 72 63
-1.57 1.648 1.789 3 0 0
-1.57 5.602 -1.868 245 248 239
-1.57 1.384 1.948 85 85 73
-1.57 5.734 -0.919 63 67 52
-1.57 3.823 -1.468 60 72 68
-1.57 3.559 -0.706 27 33 29
-1.57 4.482 -7.531 230 234 237
-1.57 5.866 -8.973 238 242 243
-1.57 6.196 -9.812 217 228 232
-1.57 3.295 -0.414 2 8 0
-1.57 3.691 -1.048 73 83 82
-1.57 0.329 4.619 71 68 61
-1.57 6.064 -9.865 219 228 233
-1.57 3.032 -0.537 12 17 11
-1.57 3.427 -0.447 23 26 19
-1.57 6.261 -9.812 211 222 226
-1.57 4.746 -9.241 215 224 231
-1.57 5.668 -0.571 207 211 196
-1.57 0.989 2.897 113 112 84
-1.57 1.911 1.246 120 113 84
-1.57 4.02 -2.22 0 1 0
-1.57 5.009 -9.374 224 229 233
-1.57 0.066 4.949 89 90 74
-1.57 2.307 0.185 114 115 99
-1.57 0.461 4.406 65 62 53
-1.57 2.9 -0.519 12 14 9
-1.57 1.78 1.59 109 103 91
-1.57 1.318 1.999 99 100 84
-1.57 1.582 1.859 34 33 31
-1.57 0.395 4.53 67 64 57
-1.57 2.043 0.941 136 130 96
-1.57 0.198 4.779 90 90 78
-1.57 3.164 -0.485 6 14 3
-1.57 4.416 -4.416 180 181 183
-1.57 5.339 -3.319 234 239 242
-1.57 2.175 0.533 123 122 101
-1.57 3.955 -1.973 58 64 60
-1.57 5.536 -2.715 216 218 217
-1.57 0.725 3.745 102 96 80
-1.57 2.109 0.738 128 126 101
-1.57 1.054 2.712 103 103 79
-1.57 0.527 4.305 14 10 1
-1.57 4.68 -9.29 226 233 239
-1.57 3.098 -0.503 13 18 11
-1.57 1.977 1.115 141 133 97
-1.57 0.923 3.105 114 110 83
-1.57 2.439 -0.173 123 123 111
-1.57 5.273 -4.673 164 170 170
-1.57 5.207 -7.98 223 228 231
-1.57 3.625 -0.843 82 91 88
-1.57 2.241 0.39 115 117 96
-1.57 4.086 -2.442 16 16 14
-1.57 4.218 -2.604 35 34 32
-1.57 5.075 -9.359 216 221 225
-1.57 4.284 -2.817 51 51 49
-1.57 1.186 2.356 104 103 83
-1.57 4.614 -9.061 218 225 231
-1.57 1.12 2.538 102 101 80
-1.57 4.35 -3.159 6 8 7
-1.57 3.361 -0.404 19 25 15
-1.57 5.932 -9.607 235 240 246
-1.57 2.505 -0.353 109 111 100
-1.57 2.768 -0.524 8 10 7
-1.57 4.152 -2.575 7 6 4
-1.57 0.132 4.866 89 90 76
-1.57 5.8 -6.394 183 185 180
-1.57 3.493 -0.565 11 16 10
-1.57 0.659 3.968 136 130 116
-1.57 5.141 -9.191 229 234 238
-1.57 4.877 -9.389 223 230 236
-1.57 0.791 3.489 105 100 80
-1.57 5.405 -3.274 227 230 239
-1.57 4.548 -8.614 216 221 225
-1.57 3.23 -0.424 15 23 10
-1.57 5.998 -9.831 222 229 237
-1.57 6.13 -9.83 210 219 224
-1.57 3.889 -1.72 65 76 72
-1.57 0.857 3.283 108 104 79
-1.57 2.373 -0.012 121 122 108
-1.57 2.636 -0.49 8 9 3
-1.57 1.252 2.186 103 104 86
-1.57 0.593 4.153 65 61 50
-1.57 1.714 1.705 16 11 5
-1.57 2.966 -0.537 13 15 10
-1.57 5.471 -2.915 140 143 152
-1.57 2.834 -0.519 10 12 9
3.242 2.636 -5.894 14 19 15
3.242 1.318 -2.297 78 74 73
3.242 5.405 1.219 51 56 60
3.242 5.339 1.111 86 91 95
3.242 0.791 -1.103 3 2 0
3.242 2.9 -6.135 51 60 41
3.242 1.78 -3.544 57 57 55
3.242 5.207 0.752 0 0 2
3.242 0.593 -0.524 40 39 37
3.242 5.8 -7.377 238 243 247
3.242 2.439 -5.524 37 37 37
3.242 0.659 -0.706 36 35 33
3.242 0.923 -1.35 57 56 54
3.242 2.109 -4.461 14 15 10
3.242 4.614 -9.067 240 242 241
3.242 1.186 -1.938 90 84 84
3.242 5.866 -8.462 236 241 245
3.242 3.823 -7.808 226 230 229
3.242 0.329 0.09 46 45 43
3.242 1.911 -3.917 105 105 103
3.242 0.198 0.404 33 32 30
3.242 1.054 -1.652 77 71 71
3.242 4.482 -9.194 245 247 246
3.242 4.35 -9.241 239 241 240
3.242 5.932 -8.817 232 237 241
3.242 3.23 -7.913 88 102 67
3.242 4.086 -9.411 238 239 241
3.242 4.943 -8.061 225 227 226
3.242 2.241 -4.909 115 116 111
3.242 0.264 0.217 33 32 30
3.242 3.955 -8.792 248 249 253
3.242 4.811 -8.8 229 231 230
3.242 1.45 -2.67 84 80 79
3.242 2.834 -5.91 32 38 24
3.242 0.989 -1.501 77 73 72
3.242 3.691 -7.181 202 208 196
3.242 1.12 -1.787 87 81 81
3.242 2.307 -5.129 93 93 91
3.242 3.164 -7.976 80 94 61
3.242 5.273 0.831 68 72 75
3.242 5.602 0.899 125 130 134
3.242 2.175 -4.656 96 97 91
3.242 3.757 -7.444 217 222 216
3.242 2.966 -6.711 65 75 51
3.242 5.734 -2.002 234 239 243
3.242 4.02 -9.267 247 248 252
3.242 0.461 -0.2 37 36 34
3.242 1.648 -3.164 12 11 9
3.242 4.284 -9.473 240 242 241
3.242 2.373 -5.338 48 48 48
3.242 4.218 -9.546 243 245 244
3.242 4.152 -9.528 237 238 240
3.242 4.877 -8.777 254 255 255
3.242 0.725 -0.915 13 12 10
3.242 1.516 -2.806 86 82 81
3.242 3.427 -7.051 121 135 100
3.242 2.505 -5.75 14 15 17
3.242 1.977 -4.044 115 115 113
3.242 3.559 -6.787 129 139 114
3.242 6.064 -9.018 230 235 239
3.242 6.261 -9.039 228 233 237
3.242 5.668 0.214 192 197 201
3.242 2.768 -5.797 12 18 8
3.242 6.13 -9.025 230 235 239
3.242 0.395 -0.046 37 36 34
3.242 4.548 -9.167 242 244 243
3.242 3.889 -8.351 234 238 239
3.242 3.098 -7.766 78 88 61
3.242 3.361 -7.42 103 117 81
3.242 5.998 -8.974 230 235 239
3.242 0.857 -1.263 25 24 22
3.242 2.702 -5.845 11 16 10
3.242 1.252 -2.106 83 77 77
3.242 2.57 -5.878 24 26 25
3.242 1.384 -2.5 80 76 75
3.242 4.746 -8.936 243 245 244
3.242 2.043 -4.252 93 93 91
3.242 3.032 -7.503 74 84 59
3.242 1.845 -3.759 82 82 80
3.242 0.527 -0.353 27 26 24
3.242 4.416 -9.154 243 245 244
3.242 0.066 0.591 20 19 17
3.242 5.075 -1.358 10 12 11
3.242 3.493 -6.883 119 133 100
3.242 0.132 0.533 36 35 33
3.242 5.536 1.17 45 50 54
3.242 3.625 -6.75 161 170 151
3.242 5.009 -5.326 126 128 127
3.242 1.582 -2.964 44 43 41
3.242 1.714 -3.337 38 38 36
3.242 3.295 -7.692 91 105 69
3.242 5.471 1.378 9 14 18
3.242 6.196 -9.018 229 234 238
3.242 5.141 0.209 26 28 27
3.242 4.68 -8.968 240 242 241
-6.447 3.23 -1.972 112 126 137
-6.447 3.889 -3.817 28 35 41
-6.447 2.241 0.326 50 55 51
-6.447 5.998 -7.284 149 154 157
-6.447 5.866 -7.234 72 77 80
-6.447 5.734 -7.245 48 54 54
-6.447 5.536 -7.123 58 64 62
-6.447 5.668 -7.234 53 59 59
-6.447 0.923 3.312 28 28 28
-6.447 3.098 -1.573 98 110 124
-6.447 0.264 4.53 37 37 37
-6.447 6.196 -7.406 135 140 144
-6.447 0.725 3.725 11 11 11
-6.447 3.295 -2.137 107 117 126
-6.447 2.57 -0.424 56 51 47
-6.447 6.13 -7.372 177 182 186
-6.447 5.405 -6.915 60 66 64
-6.447 2.043 0.715 52 49 44
-6.447 1.186 2.622 17 17 17
-6.447 5.471 -7.026 62 68 66
-6.447 2.109 0.574 51 52 47
-6.447 0.659 3.851 19 19 19
-6.447 5.075 -6.638 42 48 44
-6.447 3.757 -3.436 35 40 43
-6.447 1.714 1.626 53 49 46
-6.447 4.614 -5.782 88 90 89
-6.447 4.877 -6.353 29 34 30
-6.447 4.02 -4.136 27 32 35
-6.447 4.811 -6.219 28 33 29
-6.447 1.054 2.967 25 26 28
-6.447 3.032 -1.44 90 100 112
-6.447 5.8 -7.245 44 49 52
-6.447 5.932 -7.234 102 107 110
-6.447 4.482 -5.384 24 24 26
-6.447 2.702 -0.71 63 56 50
-6.447 6.064 -7.323 154 159 163
-6.447 5.207 -6.721 59 65 63
-6.447 3.955 -3.981 34 39 43
-6.447 3.493 -2.794 46 47 49
-6.447 3.427 -2.569 40 44 47
-6.447 0.329 4.382 36 36 36
-6.447 2.505 -0.296 56 55 50
-6.447 1.977 0.879 60 55 51
-6.447 2.175 0.438 51 53 48
-6.447 2.307 0.165 41 46 42
-6.447 1.384 2.084 47 47 47
-6.447 0.395 4.266 37 37 37
-6.447 4.548 -5.606 86 86 88
-6.447 4.284 -4.778 56 55 61
-6.447 1.45 1.949 47 46 44
-6.447 2.9 -1.201 58 59 63
-6.447 2.966 -1.324 103 107 116
-6.447 4.746 -6.104 17 22 18
-6.447 2.636 -0.592 59 52 46
-6.447 1.12 2.803 10 11 13
-6.447 1.78 1.456 59 55 52
-6.447 1.516 1.915 59 58 56
-6.447 3.691 -3.284 44 48 49
-6.447 0.989 3.155 28 28 28
-6.447 1.582 1.865 59 58 56
-6.447 5.141 -6.688 47 53 51
-6.447 5.009 -6.558 59 65 61
-6.447 4.416 -5.138 39 38 43
-6.447 2.439 -0.145 51 52 47
-6.447 0.461 4.184 35 35 35
-6.447 3.361 -2.331 98 105 111
-6.447 0.527 4.068 30 30 30
-6.447 0.132 4.829 20 20 20
-6.447 4.152 -4.429 48 49 51
-6.447 3.823 -3.648 35 43 46
-6.447 4.086 -4.273 39 43 44
-6.447 2.373 0.022 54 56 53
-6.447 2.834 -1.021 49 45 44
-6.447 0.857 3.407 22 22 22
-6.447 1.252 2.439 18 18 18
-6.447 0.066 4.911 20 20 20
-6.447 5.339 -6.829 64 70 68
-6.447 4.68 -5.927 88 90 89
-6.447 4.35 -4.938 59 58 63
-6.447 2.768 -0.878 61 56 52
-6.447 1.318 2.236 47 47 47
-6.447 1.911 1.032 58 54 51
-6.447 3.625 -3.145 42 44 43
-6.447 0.593 3.944 27 27 27
-6.447 4.218 -4.608 44 43 48
-6.447 6.261 -7.406 142 147 151
-6.447 5.602 -7.195 50 56 54
-6.447 0.791 3.568 12 12 12
-6.447 3.559 -2.98 49 49 49
-6.447 5.273 -6.75 58 64 62
-6.447 1.648 1.764 49 48 46
-6.447 3.164 -1.773 118 132 145
-6.447 4.943 -6.484 36 41 37
-6.447 0.198 4.696 34 34 34
-6.447 1.845 1.235 57 53 50
3.901 5.273 -4.643 236 240 243
3.901 5.866 -9.041 233 238 242
3.901 0.461 -0.205 90 89 87
3.901 4.086 -8.235 197 198 200
3.901 3.295 -8.235 102 116 80
3.901 4.614 -0.356 50 52 51
3.901 3.23 -8.185 101 115 80
3.901 5.932 -8.86 233 238 242
3.901 3.361 -8.354 107 121 85
3.901 2.373 -5.518 10 10 10
3.901 1.45 -2.848 120 116 115
3.901 6.196 -9.268 233 238 242
3.901 1.12 -1.972 129 123 123
3.901 4.284 -1.882 3 5 4
3.901 0.329 0.148 85 84 82
3.901 2.307 -5.343 5 5 3
3.901 4.482 -0.58 146 148 147
3.901 4.548 -0.45 89 91 90
3.901 1.845 -3.729 38 38 36
3.901 1.516 -2.995 102 98 97
3.901 0.791 -1.178 82 81 79
3.901 5.009 0.135 114 116 115
3.901 2.9 -7.643 85 96 64
3.901 3.625 -8.914 136 145 126
3.901 5.141 -0.306 157 159 158
3.901 4.152 -6.586 106 107 109
3.901 0.725 -0.992 94 93 91
3.901 1.318 -2.488 123 119 118
3.901 1.054 -1.839 120 114 114
3.901 5.339 -6.893 233 238 242
3.901 0.264 0.299 83 82 80
3.901 1.582 -3.131 65 64 62
3.901 3.098 -8.25 96 108 68
3.901 0.923 -1.503 114 113 111
3.901 1.384 -2.676 134 130 129
3.901 1.78 -3.566 42 42 40
3.901 3.164 -8.17 103 117 81
3.901 0.857 -1.35 92 91 89
3.901 2.109 -4.773 89 89 87
3.901 2.768 -6.191 56 64 43
3.901 3.691 -9.088 188 194 182
3.901 5.075 -0.04 158 160 159
3.901 4.746 0.014 20 22 21
3.901 2.043 -4.289 42 42 40
3.901 0.527 -0.374 94 93 91
3.901 1.911 -3.9 22 22 20
3.901 0.395 -0.02 89 88 86
3.901 4.943 0.125 7 9 8
3.901 4.811 0.077 33 35 34
3.901 0.066 0.703 79 78 76
3.901 4.68 -0.236 0 2 1
3.901 0.659 -0.778 86 85 83
3.901 0.989 -1.654 138 134 133
3.901 4.877 0.097 0 1 0
3.901 3.559 -8.817 128 138 113
3.901 3.889 -9.448 236 240 241
3.901 5.668 -8.593 231 236 240
3.901 4.02 -9.35 232 233 237
3.901 5.734 -8.821 230 235 239
3.901 3.493 -8.67 119 133 100
3.901 1.977 -4.022 8 8 6
3.901 0.132 0.595 96 95 93
3.901 2.175 -5.019 61 61 59
3.901 3.032 -8.114 91 103 63
3.901 3.757 -9.327 207 212 206
3.901 3.427 -8.518 115 129 94
3.901 5.536 -8.273 234 239 243
3.901 2.966 -7.93 84 96 60
3.901 6.261 -9.351 233 238 242
3.901 6.064 -8.91 233 238 242
3.901 5.207 -1.387 227 228 230
3.901 5.602 -8.39 234 239 243
3.901 4.416 -0.658 99 101 100
3.901 2.834 -6.928 71 79 55
3.901 6.13 -9.04 233 238 242
3.901 2.505 -5.654 6 8 5
3.901 2.702 -5.944 36 42 28
3.901 1.648 -3.241 35 34 32
3.901 2.636 -5.75 9 15 5
3.901 1.186 -2.152 119 113 113
3.901 5.8 -9.017 233 238 242
3.901 3.955 -9.26 254 255 255
3.901 2.241 -5.178 65 65 63
3.901 4.35 -0.98 5 7 6
3.901 4.218 -3.566 0 1 0
3.901 2.57 -5.672 24 26 21
3.901 0.593 -0.592 86 85 83
3.901 3.823 -9.585 252 255 255
3.901 5.471 -8.26 230 235 239
3.901 1.252 -2.297 110 104 104
3.901 0.198 0.444 84 83 81
3.901 2.439 -5.618 19 19 19
3.901 5.998 -8.842 233 238 242
3.901 5.405 -7.897 229 234 238
3.901 1.714 -3.398 40 40 38
2.649 2.043 -0.767 0 0 0
2.649 4.548 -9.217 237 243 243
2.649 0.527 -0.056 78 74 73
2.649 3.493 -8.759 127 137 113
2.649 3.427 -8.643 101 111 86
2.649 2.768 -5.427 26 26 24
2.649 4.284 -9.214 237 243 243
2.649 4.218 -9.239 237 243 241
2.649 3.955 -9.374 236 242 242
2.649 0.066 0.762 12 8 7
2.649 0.132 0.698 32 28 27
2.649 5.602 -0.453 3 9 9
2.649 5.932 1.999 23 28 31
2.649 1.845 -0.911 56 56 54
2.649 2.175 -0.941 9 9 7
2.649 2.9 -5.761 18 19 11
2.649 2.505 -1.452 15 16 11
2.649 3.098 -7.795 60 65 43
2.649 0.264 0.456 50 46 45
2.649 2.57 -2.127 32 33 28
2.649 1.054 -1.431 92 92 90
2.649 2.966 -6.017 26 28 15
2.649 0.659 -0.377 64 60 59
2.649 5.668 1.173 12 18 18
2.649 3.757 -9.26 221 227 225
2.649 2.702 -4.467 7 7 7
2.649 0.395 0.177 69 65 64
2.649 5.207 -9.067 234 240 240
2.649 5.536 -4.438 139 145 145
2.649 5.866 1.898 20 26 26
2.649 5.075 -9.003 239 245 245
2.649 5.8 1.659 28 34 34
2.649 6.261 0.959 227 232 235
2.649 2.439 -1.191 20 21 15
2.649 1.648 -1.325 56 56 54
2.649 3.625 -9.049 172 180 167
2.649 0.329 0.314 69 65 64
2.649 2.636 -3.286 35 35 33
2.649 1.78 -1.01 79 79 77
2.649 4.02 -9.349 235 241 239
2.649 6.196 1.212 142 147 150
2.649 1.384 -1.767 36 36 34
2.649 2.109 -0.911 7 7 5
2.649 5.141 -9.063 235 241 241
2.649 3.164 -8.187 55 64 37
2.649 2.373 -1.056 7 8 2
2.649 4.746 -9.312 238 244 244
2.649 4.614 -9.242 237 243 243
2.649 3.823 -9.331 234 239 242
2.649 2.834 -5.618 13 14 9
2.649 5.471 -7.887 225 231 231
2.649 3.032 -6.992 57 60 43
2.649 2.307 -0.967 9 10 4
2.649 4.416 -9.217 237 243 243
2.649 5.273 -9.125 238 244 244
2.649 1.45 -1.713 17 17 15
2.649 3.889 -9.355 228 233 236
2.649 6.064 1.982 0 4 7
2.649 3.295 -8.468 72 83 53
2.649 4.482 -9.197 237 243 243
2.649 4.877 -9.174 237 243 243
2.649 1.714 -1.175 82 82 80
2.649 0.857 -0.843 66 62 61
2.649 3.559 -8.978 155 164 147
2.649 0.593 -0.194 75 71 70
2.649 1.977 -0.739 20 20 18
2.649 1.582 -1.448 3 3 1
2.649 5.998 2.053 39 44 47
2.649 4.811 -9.242 238 244 244
2.649 4.35 -9.194 237 243 243
2.649 4.68 -9.29 237 243 243
2.649 0.791 -0.718 56 52 51
2.649 6.13 1.653 11 16 19
2.649 5.734 1.726 26 32 32
2.649 5.339 -8.99 244 250 250
2.649 1.252 -1.721 46 46 44
2.649 0.461 0.074 83 79 78
2.649 0.989 -1.161 83 82 80
2.649 4.152 -9.314 239 245 241
2.649 0.198 0.584 30 26 25
2.649 2.241 -0.932 24 25 20
2.649 4.943 -9.098 239 245 245
2.649 1.911 -0.796 49 49 47
2.649 3.361 -8.558 85 95 68
2.649 3.691 -9.154 190 197 190
2.649 0.725 -0.546 61 57 56
2.649 1.12 -1.57 82 82 80
2.649 5.009 -9.031 241 247 247
2.649 4.086 -9.335 227 233 229
2.649 1.318 -1.77 49 49 47
2.649 5.405 -8.661 233 239 239
2.649 3.23 -8.413 61 72 42
2.649 0.923 -0.967 89 85 84
2.649 1.516 -1.626 17 17 15
2.649 1.186 -1.623 58 58 56
4.692 2.702 -8.131 95 103 82
4.692 3.823 -3.025 122 123 125
4.692 1.845 -3.799 115 116 111
4.692 4.35 -8.811 242 242 244
4.692 6.261 -9.312 235 240 244
4.692 5.602 -9.223 233 238 242
4.692 2.966 -7.704 75 83 62
4.692 2.505 -4.766 23 29 15
4.692 4.614 -8.732 241 242 244
4.692 0.132 0.438 103 102 100
4.692 5.536 -9.271 234 239 243
4.692 5.668 -9.172 233 238 242
4.692 0.198 0.299 113 112 110
4.692 1.648 -3.512 34 34 34
4.692 3.23 -5.012 89 93 78
4.692 3.889 -3.509 154 155 157
4.692 3.361 -3.49 120 123 112
4.692 4.482 -8.964 247 247 249
4.692 3.955 -4.828 230 231 233
4.692 2.57 -5.428 87 94 78
4.692 0.527 -0.563 72 71 69
4.692 4.152 -8.846 241 243 242
4.692 1.78 -3.734 102 103 98
4.692 3.427 -3.036 146 149 140
4.692 1.054 -2.087 119 119 117
4.692 4.811 -9.08 237 241 242
4.692 6.13 -9.268 235 240 244
4.692 5.998 -9.217 234 239 243
4.692 5.932 -9.152 233 238 242
4.692 3.295 -4.14 61 65 51
4.692 0.264 0.123 116 115 113
4.692 1.911 -3.925 120 121 115
4.692 5.273 -9.433 235 240 244
4.692 4.877 -9.183 237 241 242
4.692 3.757 -2.901 154 155 157
4.692 0.659 -0.967 113 112 110
4.692 2.636 -6.644 85 92 74
4.692 1.384 -2.639 87 87 89
4.692 6.196 -9.283 235 240 244
4.692 4.943 -9.287 237 241 242
4.692 1.977 -4.104 83 84 78
4.692 2.241 -4.38 27 32 28
4.692 2.834 -8.82 91 99 76
4.692 0.725 -1.161 115 114 112
4.692 1.582 -3.317 50 50 52
4.692 5.075 -9.458 235 241 241
4.692 3.098 -7.068 75 83 62
4.692 4.086 -8.491 236 238 237
4.692 6.064 -9.217 234 239 243
4.692 4.68 -8.77 238 239 241
4.692 3.559 -2.948 133 135 130
4.692 4.416 -8.881 245 245 247
4.692 5.405 -9.351 235 240 244
4.692 2.043 -4.211 43 46 39
4.692 5.866 -9.152 233 238 242
4.692 3.032 -7.549 76 84 63
4.692 0.593 -0.762 106 105 103
4.692 4.218 -8.941 244 244 246
4.692 2.439 -4.544 19 25 13
4.692 5.009 -9.413 235 241 241
4.692 2.373 -4.433 19 25 15
4.692 4.284 -8.898 242 242 244
4.692 5.734 -9.172 233 238 242
4.692 3.164 -6.055 86 90 73
4.692 4.02 -6.789 241 242 244
4.692 2.307 -4.435 12 17 11
4.692 0.989 -1.887 123 122 120
4.692 3.625 -2.813 129 131 128
4.692 5.141 -9.467 234 240 240
4.692 1.186 -2.309 96 96 96
4.692 1.714 -3.618 72 72 70
4.692 1.318 -2.504 121 121 123
4.692 0.329 -0.046 105 104 102
4.692 3.691 -2.917 128 130 129
4.692 0.857 -1.567 115 114 112
4.692 0.066 0.529 122 121 119
4.692 1.12 -2.243 116 116 114
4.692 2.109 -4.248 0 3 0
4.692 2.175 -4.292 14 18 17
4.692 2.9 -8.274 80 88 65
4.692 4.548 -8.88 246 246 248
4.692 5.471 -9.304 234 239 243
4.692 0.461 -0.387 80 79 77
4.692 0.923 -1.702 117 116 114
4.692 0.395 -0.215 92 91 89
4.692 1.516 -3.053 47 47 49
4.692 1.252 -2.391 117 117 117
4.692 5.207 -9.476 234 239 242
4.692 5.8 -9.152 233 238 242
4.692 1.45 -2.818 45 45 47
4.692 0.791 -1.383 121 120 118
4.692 2.768 -8.595 99 107 86
4.692 4.746 -8.969 237 241 242
4.692 3.493 -2.916 135 138 131
4.692 5.339 -9.403 235 240 244
0.342 6.064 -3.113 244 245 247
0.342 2.439 -2.15 60 60 60
0.342 1.12 1.776 73 70 55
0.342 0.659 2.921 82 83 75
0.342 0.791 2.538 91 92 84
0.342 0.329 3.38 91 92 84
0.342 3.427 -3.964 20 22 17
0.342 3.823 -6.228 184 186 181
0.342 1.318 1.212 35 33 21
0.342 0.725 2.739 23 24 16
0.342 3.032 -3.68 11 12 6
0.342 3.889 -6.52 207 209 206
0.342 0.461 3.221 58 59 51
0.342 5.471 -6.278 239 240 242
0.342 4.218 -5.961 243 244 248
0.342 3.493 -4.012 22 24 19
0.342 2.505 -2.297 93 93 91
0.342 4.943 -0.786 193 195 194
0.342 2.9 -3.541 17 18 12
0.342 4.086 -6.29 234 235 237
0.342 2.57 -2.495 66 66 64
0.342 5.273 -5.657 236 237 239
0.342 5.207 -4.432 245 246 250
0.342 5.668 -6.459 237 238 240
0.342 1.582 0.326 44 45 39
0.342 6.13 -2.299 246 247 249
0.342 3.955 -6.336 230 232 229
0.342 0.264 3.465 96 97 89
0.342 4.284 -5.842 238 239 243
0.342 4.416 -5.776 240 241 243
0.342 1.845 -0.553 31 35 34
0.342 0.593 3.047 73 74 66
0.342 5.866 -5.745 241 242 244
0.342 1.648 0.132 38 40 35
0.342 3.23 -3.85 20 22 21
0.342 3.691 -4.586 86 89 82
0.342 2.834 -3.374 27 28 23
0.342 4.35 -5.91 233 234 236
0.342 5.405 -6.265 243 244 246
0.342 3.164 -3.857 17 19 16
0.342 2.043 -1.039 37 41 42
0.342 5.339 -6.29 241 242 244
0.342 1.911 -0.722 33 39 39
0.342 2.373 -1.972 8 8 8
0.342 1.516 0.563 51 52 44
0.342 5.141 -3.01 231 232 236
0.342 2.307 -1.804 10 10 10
0.342 3.361 -3.773 11 13 10
0.342 1.714 -0.105 32 34 31
0.342 4.877 -0.769 142 144 141
0.342 3.559 -3.925 5 8 1
0.342 1.186 1.637 72 69 54
0.342 5.536 -6.342 237 238 240
0.342 0.527 3.153 65 66 58
0.342 0.857 2.371 120 121 113
0.342 0.132 3.642 87 88 80
0.342 0.066 3.725 75 76 68
0.342 0.395 3.283 66 67 59
0.342 5.734 -6.367 235 236 238
0.342 0.198 3.561 89 90 82
0.342 3.625 -4.07 1 4 0
0.342 1.252 1.417 37 33 21
0.342 2.175 -1.452 26 26 26
0.342 4.614 -4.361 240 242 237
0.342 1.45 0.765 40 40 30
0.342 1.054 1.913 70 68 55
0.342 5.009 -1.112 224 225 227
0.342 5.998 -4.102 236 237 239
0.342 5.075 -1.754 177 178 180
0.342 5.932 -5.008 243 244 246
0.342 1.78 -0.299 29 33 32
0.342 4.548 -5.044 243 245 242
0.342 0.923 2.154 60 61 53
0.342 5.602 -6.372 237 238 240
0.342 2.109 -1.263 42 44 43
0.342 2.702 -2.948 59 60 55
0.342 4.152 -6.17 241 242 244
0.342 1.384 0.968 36 34 22
0.342 5.8 -6.209 234 235 237
0.342 4.482 -5.487 239 241 240
0.342 2.636 -2.723 43 44 39
0.342 4.811 -1.103 238 240 235
0.342 4.68 -3.384 205 207 202
0.342 2.241 -1.621 23 23 23
0.342 4.746 -1.974 152 154 149
0.342 6.196 -1.647 201 202 204
0.342 3.098 -3.761 12 13 8
0.342 6.261 -1.423 148 149 151
0.342 2.966 -3.637 15 16 10
0.342 4.02 -6.255 224 226 225
0.342 3.757 -5.296 154 157 150
0.342 3.295 -3.706 17 19 16
0.342 2.768 -3.198 51 52 47
0.342 1.977 -0.869 35 41 41
0.342 0.989 2.034 61 61 51
-3.877 1.977 3.753 27 27 27
-3.877 0.132 3.786 17 19 18
-3.877 4.548 -6.138 180 186 158
-3.877 4.746 -6.625 73 77 78
-3.877 2.834 -2.909 65 65 63
-3.877 5.471 -6.219 72 77 81
-3.877 3.032 -3.512 50 50 48
-3.877 4.482 -6.122 170 177 144
-3.877 1.648 3.35 36 36 36
-3.877 1.78 4.942 19 19 19
-3.877 0.593 2.552 29 31 30
-3.877 2.373 -1.391 38 38 36
-3.877 1.12 1.417 28 28 28
-3.877 1.714 4.536 23 23 23
-3.877 2.175 0.23 27 27 25
-3.877 5.207 -6.698 56 61 65
-3.877 4.02 -5.713 124 123 121
-3.877 4.811 -7.007 68 71 76
-3.877 0.857 1.864 21 23 22
-3.877 1.911 4.54 19 19 19
-3.877 1.516 1.34 52 52 52
-3.877 1.318 0.913 11 11 11
-3.877 4.68 -6.413 180 183 174
-3.877 0.395 3.072 20 22 21
-3.877 5.668 -6.048 83 88 92
-3.877 3.559 -4.778 50 49 47
-3.877 4.218 -6.038 107 109 98
-3.877 2.043 2.641 34 34 34
-3.877 4.943 -6.946 64 69 75
-3.877 1.252 1.115 18 18 18
-3.877 0.264 3.453 22 24 23
-3.877 2.702 -2.599 62 62 60
-3.877 3.823 -5.343 19 18 16
-3.877 0.989 1.681 28 30 29
-3.877 3.164 -3.852 71 70 68
-3.877 4.086 -5.795 129 128 126
-3.877 3.23 -4.005 36 35 33
-3.877 4.284 -6.086 131 134 117
-3.877 3.295 -4.145 40 39 37
-3.877 0.659 2.371 23 25 24
-3.877 0.329 3.273 15 17 16
-3.877 5.536 -6.226 81 86 90
-3.877 5.009 -6.764 58 63 67
-3.877 5.866 -5.761 89 94 98
-3.877 4.35 -6.137 170 174 149
-3.877 4.877 -6.959 64 69 75
-3.877 4.416 -6.184 169 176 143
-3.877 5.339 -6.391 69 74 78
-3.877 5.8 -5.876 101 106 110
-3.877 5.932 -5.682 76 81 85
-3.877 2.768 -2.743 63 63 61
-3.877 1.845 4.687 17 17 17
-3.877 6.064 -5.665 50 55 59
-3.877 2.636 -2.446 65 65 63
-3.877 3.691 -5.08 45 44 42
-3.877 0.461 2.895 30 32 31
-3.877 3.889 -5.469 19 18 16
-3.877 3.427 -4.455 78 77 75
-3.877 1.384 0.796 15 15 15
-3.877 0.923 1.764 27 29 28
-3.877 0.527 2.72 30 32 31
-3.877 5.273 -6.459 70 75 79
-3.877 2.505 -2.04 63 63 61
-3.877 2.9 -3.103 51 51 49
-3.877 3.493 -4.619 59 58 56
-3.877 2.307 -0.864 32 32 30
-3.877 2.57 -2.267 61 61 59
-3.877 4.614 -6.238 197 202 182
-3.877 3.757 -5.2 31 30 28
-3.877 2.966 -3.311 46 46 44
-3.877 5.405 -6.263 68 73 77
-3.877 3.361 -4.292 61 60 58
-3.877 6.261 -5.513 108 113 117
-3.877 5.075 -6.694 57 62 65
-3.877 2.439 -1.725 52 52 50
-3.877 3.625 -4.946 55 54 52
-3.877 2.109 1.107 30 30 28
-3.877 5.998 -5.618 64 69 73
-3.877 0.066 3.911 18 20 19
-3.877 1.45 0.896 33 33 33
-3.877 0.725 2.186 14 16 15
-3.877 6.13 -5.648 49 54 58
-3.877 5.734 -5.927 76 81 85
-3.877 1.582 2.357 53 53 53
-3.877 3.098 -3.704 93 93 91
-3.877 6.196 -5.588 76 81 85
-3.877 2.241 -0.34 29 29 27
-3.877 3.955 -5.615 66 65 63
-3.877 4.152 -5.927 116 115 111
-3.877 1.054 1.654 29 29 29
-3.877 0.198 3.642 24 26 25
-3.877 5.141 -6.629 63 68 72
-3.877 0.791 2.016 14 16 15
-3.877 5.602 -6.185 87 92 96
-3.877 1.186 1.212 25 25 25
3.505 0.791 -1.124 76 75 73
3.505 4.152 -9.741 241 242 244
3.505 5.734 -8.546 247 252 255
3.505 3.032 -7.995 91 102 72
3.505 1.845 -3.837 115 115 113
3.505 3.295 -8.16 88 102 66
3.505 1.318 -2.377 101 97 96
3.505 1.384 -2.548 95 91 90
3.505 0.725 -0.92 78 77 75
3.505 5.602 -6.923 241 246 250
3.505 5.405 0.628 148 153 157
3.505 4.218 -9.646 227 229 228
3.505 4.877 -0.559 19 21 20
3.505 4.614 -8.132 223 225 224
3.505 2.043 -4.379 17 17 15
3.505 2.241 -5 85 85 83
3.505 4.02 -9.882 239 240 244
3.505 5.471 -0.234 189 194 198
3.505 0.066 0.591 20 19 17
3.505 4.943 -0.04 50 52 51
3.505 3.691 -9.345 196 202 190
3.505 2.768 -5.91 20 26 14
3.505 0.857 -1.296 80 79 77
3.505 1.516 -2.869 89 85 84
3.505 5.273 1.172 0 2 5
3.505 1.252 -2.203 82 76 76
3.505 0.461 -0.19 13 12 10
3.505 2.109 -4.656 98 99 94
3.505 1.911 -4.012 89 89 87
3.505 3.559 -8.759 130 140 115
3.505 0.329 0.097 18 17 15
3.505 5.075 0.521 95 97 96
3.505 1.648 -3.215 84 83 81
3.505 6.13 -9.049 232 237 241
3.505 0.923 -1.417 64 63 61
3.505 2.307 -5.176 49 49 47
3.505 5.207 0.948 26 27 29
3.505 0.132 0.506 37 36 34
3.505 1.78 -3.602 99 99 97
3.505 1.186 -2.039 58 52 52
3.505 3.098 -8.259 79 90 58
3.505 5.141 0.626 16 18 17
3.505 3.955 -9.882 237 238 242
3.505 2.966 -7.488 92 102 75
3.505 3.164 -8.074 76 90 55
3.505 2.702 -5.843 16 21 14
3.505 3.493 -8.546 106 120 87
3.505 2.505 -5.571 18 20 19
3.505 1.054 -1.721 16 10 10
3.505 1.977 -4.157 26 26 24
3.505 3.823 -9.798 233 237 236
3.505 3.427 -8.373 99 113 78
3.505 4.284 -9.466 253 255 254
3.505 3.361 -8.262 95 109 73
3.505 0.395 -0.07 6 5 3
3.505 4.416 -9.097 233 235 234
3.505 0.527 -0.374 65 64 62
3.505 1.714 -3.386 76 76 74
3.505 0.264 0.232 34 33 31
3.505 4.68 -6.856 145 147 146
3.505 1.12 -1.888 37 31 31
3.505 5.932 -8.863 236 241 245
3.505 3.23 -8.051 81 95 60
3.505 4.811 -1.635 0 2 1
3.505 0.198 0.377 41 40 38
3.505 5.8 -8.593 233 238 242
3.505 6.064 -9.028 234 239 243
3.505 4.35 -9.302 240 242 241
3.505 1.582 -3.019 99 98 96
3.505 6.196 -9.087 232 237 241
3.505 4.746 -3.717 6 8 7
3.505 5.998 -8.952 235 240 244
3.505 4.548 -8.886 254 255 255
3.505 4.086 -9.847 237 238 240
3.505 0.659 -0.716 90 89 87
3.505 2.9 -6.781 87 97 73
3.505 0.593 -0.547 84 83 81
3.505 3.757 -9.616 220 225 219
3.505 5.009 0.27 63 65 64
3.505 6.261 -9.132 232 237 241
3.505 0.989 -1.535 38 34 33
3.505 1.45 -2.702 84 80 79
3.505 4.482 -9.077 248 250 249
3.505 2.57 -5.652 17 19 16
3.505 2.439 -5.467 14 14 14
3.505 5.668 -8.167 228 233 237
3.505 5.536 -3.218 237 242 246
3.505 2.373 -5.314 27 27 27
3.505 5.339 1.023 85 90 94
3.505 2.834 -6.17 83 90 74
3.505 5.866 -8.732 234 239 243
3.505 3.625 -9.039 155 164 145
3.505 2.175 -4.873 121 122 117
3.505 2.636 -5.732 17 22 16
3.505 3.889 -9.882 232 236 237
-0.317 4.416 -6.934 243 243 243
-0.317 2.505 -1.754 23 25 22
-0.317 3.295 -1.855 100 111 81
-0.317 4.218 -6.435 233 235 234
-0.317 5.8 -8.442 230 235 238
-0.317 3.955 -2.273 95 100 93
-0.317 5.734 -8.296 229 233 234
-0.317 4.68 -6.367 232 231 236
-0.317 1.45 1.132 113 113 105
-0.317 2.175 -0.878 46 47 52
-0.317 5.141 -1.04 115 115 113
-0.317 5.075 -1.195 187 187 187
-0.317 4.746 -5.758 231 230 235
-0.317 1.252 1.661 83 84 78
-0.317 3.164 -1.824 103 109 81
-0.317 1.582 0.765 126 126 118
-0.317 0.659 3.3 8 9 4
-0.317 0.527 3.568 72 73 68
-0.317 1.911 -0.248 49 51 50
-0.317 2.109 -0.722 49 50 55
-0.317 0.989 2.236 81 81 79
-0.317 1.78 0.149 59 60 55
-0.317 5.207 -0.903 164 164 162
-0.317 2.702 -2.007 17 20 9
-0.317 2.241 -1.114 46 47 52
-0.317 3.757 -1.886 106 111 91
-0.317 5.536 -7.879 231 235 234
-0.317 2.768 -2.137 44 48 34
-0.317 6.064 -8.788 227 235 238
-0.317 3.559 -1.835 108 122 97
-0.317 6.261 -8.576 224 232 235
-0.317 4.811 -4.968 240 239 244
-0.317 0.066 4.184 69 70 62
-0.317 0.725 3.103 62 63 58
-0.317 6.196 -8.643 225 233 236
-0.317 2.834 -2.17 92 96 81
-0.317 0.329 3.788 70 71 63
-0.317 0.132 4.068 85 86 78
-0.317 5.602 -8.115 235 239 238
-0.317 3.23 -1.743 100 109 78
-0.317 1.516 0.968 121 121 113
-0.317 4.548 -6.605 242 242 244
-0.317 0.593 3.474 63 64 59
-0.317 0.198 3.977 81 82 74
-0.317 5.009 -1.731 169 169 169
-0.317 2.966 -2.188 135 140 120
-0.317 2.57 -1.82 19 21 16
-0.317 0.461 3.628 52 53 47
-0.317 2.636 -1.938 11 14 5
-0.317 1.384 1.312 104 104 96
-0.317 4.482 -6.728 245 245 247
-0.317 5.273 -0.727 232 234 233
-0.317 2.439 -1.655 34 36 35
-0.317 4.614 -6.619 237 236 241
-0.317 0.395 3.706 60 61 55
-0.317 1.845 -0.072 42 42 40
-0.317 2.307 -1.321 49 50 54
-0.317 4.943 -2.802 237 237 239
-0.317 1.318 1.492 95 96 90
-0.317 1.977 -0.428 53 55 54
-0.317 5.668 -8.235 233 237 238
-0.317 5.405 -5.681 220 222 221
-0.317 4.086 -4.065 157 166 165
-0.317 4.877 -3.833 183 183 185
-0.317 1.186 1.78 71 73 68
-0.317 5.998 -8.648 227 235 237
-0.317 3.691 -1.903 115 123 100
-0.317 2.043 -0.547 58 62 63
-0.317 3.625 -1.818 117 129 105
-0.317 0.923 2.439 74 74 72
-0.317 3.361 -1.921 103 116 88
-0.317 3.823 -1.841 109 113 96
-0.317 4.152 -5.302 222 231 230
-0.317 6.13 -8.788 226 234 237
-0.317 0.264 3.861 74 75 67
-0.317 3.427 -1.92 103 117 91
-0.317 3.889 -1.988 93 99 85
-0.317 3.032 -2.142 120 125 105
-0.317 5.932 -8.558 229 237 239
-0.317 2.9 -2.203 132 136 119
-0.317 1.648 0.591 100 100 92
-0.317 0.857 2.641 67 67 65
-0.317 3.493 -1.92 101 115 90
-0.317 4.284 -6.926 235 235 233
-0.317 5.339 -1.882 187 189 188
-0.317 5.866 -8.492 231 236 239
-0.317 1.12 1.916 69 71 66
-0.317 1.054 2.051 74 76 71
-0.317 0.791 2.852 104 104 102
-0.317 4.02 -2.86 119 125 121
-0.317 1.714 0.37 85 84 79
-0.317 2.373 -1.522 46 47 49
-0.317 5.471 -7.519 232 234 233
-0.317 3.098 -2.007 111 116 93
-0.317 4.35 -7.011 239 239 239
7.724 0.857 -2.421 74 74 76
7.724 4.943 -9.283 242 244 243
7.724 5.207 -9.246 241 243 242
7.724 3.625 -8.821 177 186 169
7.724 3.889 -9.146 239 243 244
7.724 1.78 -7.973 85 98 70
7.724 0.725 -1.972 11 16 12
7.724 0.329 -1.075 137 127 125
7.724 3.691 -8.919 195 201 191
7.724 1.714 -8.032 75 88 58
7.724 0.132 -0.477 122 117 114
7.724 1.318 -7.384 60 68 45
7.724 4.746 -9.302 243 245 244
7.724 3.559 -8.761 150 159 138
7.724 4.811 -9.302 243 245 244
7.724 2.702 -8.293 109 120 90
7.724 2.241 -8.115 58 69 39
7.724 4.152 -9.304 245 247 246
7.724 3.23 -8.574 142 154 130
7.724 6.13 -9.268 240 241 243
7.724 5.668 -9.152 245 246 248
7.724 5.866 -9.223 240 241 243
7.724 2.966 -8.439 155 165 141
7.724 4.284 -9.326 242 244 243
7.724 5.998 -9.268 240 241 243
7.724 0.659 -1.806 24 26 23
7.724 2.109 -8.12 66 76 49
7.724 0.264 -0.877 151 141 139
7.724 5.141 -9.26 241 243 242
7.724 5.009 -9.283 242 244 243
7.724 1.648 -8.158 88 99 69
7.724 3.032 -8.484 159 168 147
7.724 4.68 -9.302 241 243 242
7.724 5.273 -9.152 240 241 243
7.724 0.989 -2.845 137 135 138
7.724 1.977 -8.12 115 128 98
7.724 5.405 -9.101 239 240 242
7.724 3.427 -8.658 140 153 127
7.724 5.602 -9.152 242 243 245
7.724 2.9 -8.409 150 160 135
7.724 4.877 -9.283 243 245 244
7.724 3.757 -8.991 221 226 220
7.724 0.066 -0.363 108 104 101
7.724 0.461 -1.452 133 130 125
7.724 2.439 -8.15 83 94 62
7.724 2.043 -8.12 101 114 84
7.724 5.932 -9.223 240 241 243
7.724 6.064 -9.268 240 241 243
7.724 0.593 -1.686 38 39 34
7.724 1.45 -7.92 87 96 65
7.724 3.098 -8.518 130 139 118
7.724 2.768 -8.338 115 126 96
7.724 3.164 -8.569 151 163 139
7.724 5.8 -9.172 240 241 243
7.724 4.416 -9.326 243 245 244
7.724 0.198 -0.671 151 143 141
7.724 2.373 -8.15 78 89 59
7.724 3.955 -9.217 242 243 245
7.724 1.845 -8.056 101 114 86
7.724 6.261 -9.268 240 241 243
7.724 4.35 -9.326 242 244 243
7.724 2.505 -8.16 73 84 52
7.724 1.582 -8.163 102 113 81
7.724 2.834 -8.375 149 159 132
7.724 2.57 -8.204 77 88 56
7.724 4.548 -9.304 242 244 243
7.724 4.614 -9.302 242 244 243
7.724 0.395 -1.29 129 121 118
7.724 0.791 -2.199 36 38 37
